ncols        303
nrows        31
xllcorner    1748393
yllcorner    5428808
cellsize     1.000000000000
NODATA_value  -9999.000000
22.364902 22.348614 22.369862 22.389027 22.354902 22.249071 22.178183 22.052553 21.867792 21.915001 22.094707 22.076338 21.958206 21.805744 21.765223 21.827003 21.772173 21.719713 21.664143 21.630354 21.638762 22.113682 22.937988 23.846245 24.874699 25.833025 26.357983 26.638832 26.616219 26.650352 26.671774 26.626774 26.631357 26.478941 26.281303 26.101562 25.899746 25.959541 26.058990 25.903856 25.889595 25.922104 25.958513 25.957224 26.268061 26.474720 26.627104 26.801319 27.082981 27.467442 27.924572 28.458851 29.030218 29.625227 30.244717 30.870062 31.472532 32.025124 32.504776 32.935448 33.124630 33.190136 33.224583 33.195980 33.398510 33.743210 34.006474 34.218262 34.392815 34.531776 34.654793 34.799435 34.857594 34.913231 34.895489 35.049976 35.105885 35.189163 35.159737 35.222248 35.302689 35.295464 35.308640 35.109386 34.856297 34.664654 34.217922 33.360664 32.591385 31.908657 31.345047 30.939409 30.687702 30.588392 30.536161 30.499437 30.405569 30.344872 30.297585 30.241932 30.190855 30.353783 30.350201 30.381466 30.344366 30.352346 30.228203 30.169285 30.189587 30.198063 30.196705 30.246784 30.311844 30.401413 30.293613 30.173328 30.068171 29.983990 29.933180 29.940756 30.175297 30.106262 29.918303 29.809706 29.711964 29.862869 29.872252 29.817430 29.824253 29.745119 29.682823 29.649740 29.542694 29.438059 29.332182 29.414967 29.505205 29.271553 28.909698 28.643818 27.356058 25.363586 23.537689 23.309698 23.109241 22.906782 22.740873 22.671711 22.569870 22.457415 22.363091 22.264008 22.178436 22.143127 22.129940 22.068897 22.042583 21.990595 21.967783 21.854477 21.691603 21.555866 21.535355 21.396332 21.435589 21.403818 21.338442 21.122036 20.978794 20.810652 20.639017 20.460764 20.278847 20.095882 19.913097 19.730968 19.550659 19.373539 19.199640 19.026016 18.853693 18.682880 18.511862 18.338793 18.165403 17.995436 17.827459 17.665113 17.510677 17.369099 17.403309 17.383644 17.411364 17.228628 17.029387 16.945032 16.953930 16.992422 17.017727 17.034338 17.038582 16.921804 16.818514 16.777716 16.802158 16.727505 16.731976 16.689472 16.615826 16.557253 16.502790 16.450930 16.394409 16.394932 16.367121 16.320391 16.402817 16.304255 16.282492 16.373495 16.358366 16.403225 16.255604 16.310061 16.276482 16.244286 16.246296 16.014568 15.190015 14.380646 13.992522 14.096733 13.880972 13.788548 13.708281 13.615729 13.507619 13.389448 13.271960 13.186750 13.216226 13.240151 13.260893 13.263203 13.265657 13.268651 13.270804 13.271982 13.272596 13.272979 13.273255 13.273519 13.273867 13.274405 13.275247 13.276533 13.278388 13.280945 13.284342 13.288706 13.294044 13.299874 13.304926 13.308223 13.310251 13.311151 13.279450 13.156170 13.024143 13.038928 13.061076 13.086598 13.021761 13.065013 13.055996 13.121949 13.022214 12.967077 12.390577 11.319699 10.646933 10.688363 10.579804 10.272841 9.802936 9.187149 8.423993 7.474598 6.369079 6.380580 6.630046 6.816129 7.061638 7.156044 7.327498 7.548890 7.678864 7.965276 8.076223 8.309128 8.459696 8.613253 8.729877
22.379459 22.346012 22.331018 22.299370 22.318066 22.065132 22.053854 21.906757 22.067656 22.125910 22.133839 22.127441 22.031691 21.910440 21.888247 21.963144 21.873547 21.662691 21.629280 21.660078 22.222061 23.121042 23.961781 24.817501 25.740562 26.795607 26.670708 26.652582 26.684538 26.709747 26.703522 26.648186 26.598478 26.395830 26.254766 26.110819 26.203981 26.095995 26.023106 25.966719 25.932407 25.899187 26.005363 26.452543 26.887653 27.205070 27.479147 27.751137 28.072744 28.445221 28.866840 29.342247 29.872213 30.421669 30.981726 31.570665 32.129520 32.621452 33.031467 33.379375 33.560360 33.637375 33.691238 33.746727 33.862946 34.130878 34.385227 34.607063 34.798233 34.948608 35.050770 35.080067 35.158703 35.188148 35.260677 35.395569 35.343979 35.379017 35.432484 35.523514 35.499855 35.465374 35.346844 35.232750 35.108490 34.889164 34.594707 33.638931 32.668270 31.815474 31.163929 30.786596 30.630707 30.553293 30.503119 30.449331 30.329401 30.332836 30.269053 30.210062 30.273598 30.327688 30.335672 30.357334 30.339546 30.325674 30.204725 30.204674 30.216322 30.218225 30.199825 30.244947 30.345242 30.457350 30.327591 30.198591 30.081886 29.966173 29.885788 29.773930 30.126886 30.169548 29.895262 29.779169 29.737061 29.754957 29.765629 29.747988 29.720451 29.680609 29.623854 29.566643 29.506834 29.453772 29.371639 29.461920 29.333239 29.272795 28.866304 28.585556 27.246521 25.518639 24.143816 23.412048 23.225031 23.067942 22.940044 22.945755 22.763680 22.625898 22.512857 22.455624 22.393938 22.403034 22.273945 22.235514 22.224024 22.188566 22.160818 22.025705 21.887690 21.799269 21.788454 21.727261 21.745829 21.643759 21.471634 21.332382 21.219084 21.034296 20.864073 20.687960 20.508812 20.329569 20.151369 19.974483 19.799576 19.626915 19.454752 19.283476 19.113527 18.940924 18.762924 18.581213 18.396967 18.210724 18.021772 17.836405 17.659134 17.495316 17.328836 17.255255 17.299765 17.183426 17.137613 17.031599 17.018019 17.021061 17.030796 17.033768 17.013739 16.862112 16.699694 16.661882 16.595177 16.409235 16.619293 16.700117 16.625719 16.576584 16.510609 16.442881 16.381544 16.404018 16.211147 16.374859 16.362446 16.339558 16.398550 16.311977 16.340204 16.260481 16.291243 16.297087 16.333010 16.315695 16.257673 15.628651 14.828763 13.941447 14.251120 14.294441 14.010119 13.874307 13.784473 13.677425 13.564431 13.445279 13.326989 13.242181 13.237772 13.243571 13.256301 13.261907 13.264959 13.267212 13.268647 13.269521 13.269970 13.270094 13.270087 13.270087 13.270188 13.270494 13.271137 13.272215 13.273827 13.276073 13.279061 13.282875 13.287469 13.292712 13.298836 13.304976 13.308656 13.308305 13.288335 13.222649 13.158112 13.126536 13.115747 13.175192 13.163952 13.093492 13.116813 13.125716 13.115805 13.184294 12.914636 12.150587 11.742082 11.560090 11.342635 10.967688 10.437515 9.796082 9.033841 8.112835 7.125381 6.607401 6.659367 7.036186 7.125175 7.187402 7.313841 7.479417 7.648977 7.885150 8.066025 8.268758 8.396281 8.620267 8.727033
22.393667 22.326923 22.300554 22.303673 22.274979 22.125177 21.924976 22.011261 22.051567 22.146009 22.197559 21.973436 22.087133 22.071423 21.862585 21.920115 21.839746 21.632294 21.765011 22.342402 23.273081 24.185591 25.002310 25.758913 26.470104 26.807373 26.771273 26.706440 26.723921 26.760838 26.653074 26.684784 26.501974 26.350813 26.256823 26.285217 26.243002 26.168505 26.103485 26.054018 26.050394 26.263603 26.668081 27.199646 27.653605 28.031078 28.369085 28.692638 29.033028 29.403284 29.805859 30.246405 30.731586 31.240274 31.749390 32.281956 32.798248 33.210133 33.544044 33.844624 34.030422 34.134079 34.200027 34.264729 34.397415 34.511303 34.767250 35.015347 35.229286 35.383327 35.398930 35.373268 35.409237 35.438400 35.479496 35.531620 35.545921 35.615536 35.580872 35.606785 35.627251 35.614346 35.537666 35.427212 35.275394 35.078690 34.898643 34.217999 32.985348 31.764908 30.805929 30.645599 30.558294 30.522167 30.460129 30.323622 30.274504 30.280739 30.232092 30.174351 30.066820 30.210140 30.312277 30.324379 30.277348 30.327654 30.206165 30.183380 30.249538 30.278870 30.241934 30.237671 30.332022 30.488873 30.332285 30.192682 30.058868 29.911884 29.755154 29.990768 30.003168 30.026440 29.726671 29.554897 29.630804 29.574270 29.615881 29.678673 29.660255 29.644302 29.615278 29.641815 29.557415 29.503958 29.447056 29.349260 29.229244 29.007401 28.687418 28.503408 27.251484 25.686954 24.397455 23.598934 23.450518 23.358492 23.225157 23.097996 23.020752 22.828621 22.682547 22.696642 22.713774 22.628750 22.555573 22.408489 22.372158 22.332872 22.338091 22.202698 22.128059 22.023273 21.934366 21.936798 21.820471 21.734255 21.644230 21.564528 21.345049 21.262413 21.099134 20.924133 20.746550 20.570305 20.396048 20.223581 20.052244 19.881390 19.710979 19.541836 19.370378 19.190777 19.004578 18.813337 18.617426 18.416151 18.208807 18.002502 17.803040 17.614079 17.431629 17.241972 17.160925 17.160339 17.109848 17.021397 17.008236 16.931038 16.956968 16.935680 16.875265 16.763062 16.642141 16.608185 16.555887 16.498009 16.539253 16.539921 16.563885 16.603367 16.485289 16.377136 16.312120 16.354395 16.301994 16.389660 16.359215 16.306515 16.407227 16.327999 16.290543 16.361521 16.327597 16.342367 16.385370 16.190149 16.141088 15.399916 14.639725 13.928538 14.130535 14.307474 14.261235 14.051323 13.872520 13.750979 13.627048 13.493039 13.366084 13.270844 13.249886 13.248010 13.253042 13.261093 13.264620 13.265857 13.266491 13.266666 13.266573 13.266327 13.266011 13.265685 13.265458 13.265455 13.265772 13.266479 13.267646 13.269337 13.271575 13.274437 13.278092 13.282822 13.288992 13.296716 13.304381 13.309269 13.323044 13.335856 13.290960 13.262558 13.239923 13.257457 13.275785 13.246471 13.209380 13.239824 13.273826 13.386366 13.370721 12.974703 12.741301 12.624329 12.327776 11.865155 11.278704 10.629232 9.908177 9.150227 8.564872 8.102180 8.048155 8.225231 8.317753 8.358155 8.349135 8.287965 8.320807 8.422163 8.469690 8.558744 8.685993 8.839165 9.013689
22.385990 22.276791 22.313221 22.276960 22.154802 22.138725 22.133842 22.268497 22.188360 22.254637 22.058537 22.115377 22.066946 21.933294 21.901312 21.814116 21.798754 21.807173 22.599260 23.401028 24.271559 25.248251 26.145432 26.714449 26.724274 26.784698 26.761490 26.718752 26.740273 26.797695 26.704248 26.646795 26.548241 26.423996 26.365013 26.379101 26.300211 26.241993 26.182831 26.286146 26.648306 27.055071 27.530809 28.031202 28.488598 28.897371 29.274939 29.630398 29.984358 30.353100 30.736010 31.148190 31.597454 32.071220 32.546688 33.019913 33.475201 33.775734 34.042145 34.302540 34.550026 34.662167 34.707745 34.730732 34.618595 34.872494 35.120045 35.438335 35.732677 35.807926 35.733250 35.675846 35.668282 35.680977 35.703625 35.706123 35.668575 35.717484 35.753315 35.866276 35.873993 35.830616 35.758305 35.647713 35.500538 35.309605 35.119411 34.776806 33.618309 32.272667 31.003773 30.516348 30.508297 30.531130 30.433474 30.347315 30.296551 30.236675 30.184959 30.135998 30.182632 30.253271 30.260921 30.387407 30.256914 30.294191 30.160246 30.190168 30.287003 30.358093 30.322605 30.253036 30.243347 30.332582 30.314468 30.158461 29.996206 29.822474 29.792645 29.766577 30.007507 30.116388 29.768667 29.708658 29.628635 29.638660 29.664074 29.707514 29.678596 29.675989 29.647078 29.602158 29.615234 29.517166 29.396198 29.300703 29.262419 29.112547 28.764233 28.352814 27.155907 25.677158 24.316967 23.729065 23.594341 23.574825 23.503767 23.358952 23.152348 22.992149 22.952597 22.957150 22.893669 22.748383 22.651485 22.577944 22.429205 22.467312 22.482029 22.394751 22.226088 22.190723 22.110941 22.112318 21.951084 21.825981 21.748739 21.735703 21.531010 21.450464 21.343557 21.169825 20.991690 20.817364 20.645853 20.475557 20.305769 20.136366 19.967817 19.799578 19.622309 19.435265 19.240509 19.039057 18.830935 18.614986 18.390358 18.164234 17.942240 17.727781 17.524157 17.338585 17.143520 16.977648 16.950699 16.864975 16.880030 16.865534 16.865221 16.838554 16.780350 16.706604 16.651451 16.622349 16.565073 16.538340 16.481276 16.370911 16.398214 16.482096 16.412138 16.395935 16.389156 16.294418 16.272234 16.363800 16.318066 16.299994 16.344179 16.319286 16.366907 16.289612 16.347281 16.348352 16.199978 15.917486 15.522579 14.999051 14.417986 13.835906 14.082618 14.308052 14.245749 14.153064 13.872101 13.799379 13.679629 13.544858 13.385973 13.272326 13.259408 13.250891 13.253957 13.260356 13.264065 13.264806 13.264289 13.263501 13.262630 13.261755 13.260928 13.260178 13.259562 13.259156 13.259012 13.259187 13.259737 13.260745 13.262324 13.264535 13.267498 13.271499 13.276968 13.284455 13.295132 13.310879 13.325447 13.332490 13.422174 13.400186 13.352800 13.382858 13.295469 13.300903 13.302104 13.342976 13.344104 13.497616 13.426255 13.526399 13.570464 13.666068 13.603004 13.021557 12.349661 11.701432 11.072870 10.525249 10.046190 9.629224 9.500969 9.611393 9.773983 9.706855 9.491654 9.344922 9.269672 9.188567 9.166829 9.168061 9.206466 9.316159 9.451784
22.403774 22.286421 22.363407 22.308043 22.213644 22.150614 22.245146 22.331898 22.243113 22.281651 22.264185 22.112389 22.002111 21.912651 21.855724 21.705627 21.821262 22.798223 23.645863 24.429710 25.240540 26.175938 27.068558 26.998318 26.825569 26.845753 26.763163 26.704672 26.800627 26.767775 26.718161 26.661003 26.521204 26.460630 26.493006 26.336876 26.311941 26.295671 26.435259 26.887537 27.348637 27.825590 28.342709 28.863146 29.347668 29.781849 30.186031 30.567673 30.931702 31.288488 31.655872 32.039341 32.448982 32.881893 33.332523 33.801075 34.062275 34.277187 34.494812 34.738911 35.059265 35.255554 35.197514 35.102695 35.106415 35.251217 35.583839 35.773827 35.997742 36.025635 36.011032 35.909470 35.877132 35.869854 35.847538 35.821720 35.929718 36.013790 36.081299 36.151951 36.117710 36.067524 35.992043 35.886135 35.743351 35.547050 35.307606 35.246235 34.153664 32.583157 31.088804 30.576529 30.579453 30.526831 30.440546 30.359612 30.287611 30.210360 30.146908 30.107403 30.112469 30.303305 30.317230 30.324520 30.284971 30.239958 30.145641 30.193668 30.311626 30.438604 30.422138 30.324791 30.275455 30.291414 30.255970 30.026241 29.938183 29.841274 29.709806 29.970755 30.127398 30.184196 29.852127 29.653009 29.649046 29.629986 29.646944 29.672148 29.734694 29.720699 29.638939 29.574602 29.560453 29.475243 29.359209 29.272387 29.261732 29.139078 28.800806 28.376770 27.112638 25.706409 24.145823 23.893980 23.867483 23.790873 23.626814 23.518679 23.384363 23.291296 23.262909 23.231222 23.098141 22.951754 22.845493 22.717873 22.625765 22.573973 22.605358 22.551321 22.375135 22.316847 22.269718 22.270866 22.115133 22.034201 21.934595 21.923933 21.768427 21.693474 21.587708 21.424437 21.240572 21.066673 20.896578 20.727663 20.559345 20.391613 20.225008 20.055098 19.871403 19.676725 19.473009 19.261011 19.040459 18.809944 18.568413 18.323807 18.080200 17.839680 17.607313 17.400682 17.269428 16.986132 16.741428 16.765682 16.826670 16.814842 16.791876 16.762901 16.710688 16.671036 16.679777 16.654797 16.577259 16.525818 16.475241 16.385361 16.365459 16.289112 16.388578 16.308147 16.359203 16.305313 16.388773 16.415966 16.319212 16.331211 16.357233 16.319477 16.385393 16.358379 16.302805 16.273478 15.268315 14.404612 14.375875 14.272808 14.025656 13.773496 14.103024 14.248793 14.194875 14.138727 13.990703 13.821074 13.684511 13.575516 13.379927 13.144508 13.272932 13.256146 13.257686 13.261024 13.262749 13.262909 13.261705 13.260053 13.258508 13.257064 13.255698 13.254416 13.253275 13.252316 13.251589 13.251144 13.251057 13.251414 13.252322 13.253764 13.255890 13.258979 13.263340 13.270008 13.281688 13.299989 13.323435 13.359002 13.370522 13.454081 13.348806 13.286264 13.259120 13.351922 13.330901 13.457948 13.384626 13.377735 13.514212 13.536059 13.949414 14.207145 14.235685 14.153845 13.522518 12.852428 12.292659 11.885778 11.555081 11.039887 10.873791 11.041028 11.254206 10.945427 10.555019 10.320711 10.107704 9.921511 9.812338 9.746260 9.732154 9.792383 9.868552
22.422361 22.267952 22.331947 22.290754 22.230904 22.124088 22.164534 22.220266 22.204752 22.212124 22.223055 22.041496 21.895971 21.919413 21.831877 22.282274 23.099201 23.992760 24.796043 25.482416 26.154072 26.878391 27.086584 27.033262 27.017370 26.958170 26.747978 26.827307 26.756823 26.690918 26.583857 26.504910 26.638477 26.605612 26.487913 26.396406 26.408499 26.626413 27.030661 27.486910 27.993359 28.519299 29.072853 29.629196 30.163538 30.660730 31.101721 31.503719 31.867453 32.209579 32.548786 32.890347 33.250240 33.624573 34.006016 34.301884 34.473728 34.691277 34.912441 35.144714 35.366844 35.486351 35.584690 35.567772 35.491180 35.624374 35.860710 36.064522 36.172718 36.284142 36.190666 35.958900 36.022675 36.260902 36.350784 36.348507 36.415031 36.364422 36.379143 36.403412 36.380146 36.326965 36.249214 36.141411 35.999481 35.798115 35.702541 35.566875 34.445248 32.735683 30.993156 30.488117 30.588123 30.540081 30.442518 30.361010 30.291510 30.189693 30.161388 30.112968 30.106712 30.191050 30.217770 30.265558 30.314905 30.218199 30.069935 30.141628 30.326351 30.448992 30.444565 30.353012 30.299269 30.290020 30.104630 29.934164 29.864122 29.832369 29.779860 29.808809 30.117266 30.203396 29.866240 29.526592 29.512411 29.564713 29.588980 29.593180 29.644979 29.745195 29.600903 29.511621 29.379665 29.398407 29.350914 29.286982 29.340618 29.221962 28.941677 28.477041 27.211521 25.847095 24.383444 24.048685 24.101555 23.966623 23.877390 23.713491 23.602053 23.458595 23.383291 23.286436 23.218067 23.156403 23.064032 22.878271 22.827717 22.696886 22.626852 22.631079 22.481512 22.560743 22.462399 22.358698 22.280527 22.204565 22.075960 22.069153 21.960672 21.870110 21.710279 21.710766 21.489544 21.314751 21.146273 20.979025 20.812449 20.646790 20.482492 20.309727 20.119698 19.917028 19.703861 19.480864 19.247307 19.001690 18.743538 18.481737 18.217485 17.951025 17.685156 17.435793 17.353222 17.075411 16.901543 16.887915 16.777822 16.741711 16.755594 16.749336 16.688339 16.633776 16.781862 16.665665 16.520025 16.476883 16.476896 16.442347 16.360497 16.262730 16.245491 16.126787 16.340080 16.359735 16.394787 16.443079 16.414959 16.356106 16.347679 16.335087 16.303896 16.297623 16.280029 16.121868 14.939752 13.751794 13.637472 13.742872 13.828181 14.044559 14.183802 14.220552 14.149853 14.067634 14.025719 13.958924 13.846151 13.585137 13.514276 13.195972 13.279317 13.264152 13.262993 13.262477 13.261291 13.259787 13.258321 13.256643 13.254647 13.252656 13.250718 13.248853 13.247117 13.245542 13.244166 13.243032 13.242200 13.241752 13.241766 13.242263 13.243361 13.245195 13.248370 13.253966 13.263304 13.280184 13.312202 13.356634 13.309927 13.241941 13.227726 13.151577 13.157855 13.263733 13.288415 13.453046 13.501779 13.558797 13.498031 13.558110 13.969723 14.302521 14.400681 14.427349 13.877839 13.563302 13.016416 12.495376 11.998413 11.830055 11.694009 11.854648 11.992865 11.986285 11.495991 11.211692 10.884077 10.601383 10.408427 10.281948 10.227538 10.257594 10.295458
22.357338 22.295191 22.261667 22.224016 22.300255 22.372536 22.202307 22.183956 22.173992 22.192858 22.127689 22.107010 21.859915 22.016104 22.354242 23.324196 24.268509 25.223148 26.100281 26.590904 27.057037 27.147831 27.103333 27.015865 27.050013 26.979029 26.929581 26.795837 26.720175 26.610712 26.529427 26.520487 26.635462 26.574020 26.488983 26.549393 26.775019 27.162966 27.613260 28.092205 28.613071 29.166935 29.742657 30.335384 30.919773 31.483553 32.002911 32.440090 32.791851 33.104218 33.397308 33.689461 33.990517 34.291664 34.567757 34.723621 34.875359 35.092377 35.317383 35.517639 35.683704 35.751614 35.734127 35.892754 35.926537 35.983368 36.129086 36.305428 36.390854 36.503120 36.486633 36.406990 36.390297 36.631603 36.619926 36.694283 36.769554 36.656982 36.739960 36.715752 36.683681 36.616997 36.525585 36.411987 36.297123 36.091164 35.887371 35.839989 34.724926 32.917690 31.248217 30.541254 30.580885 30.527292 30.432756 30.354416 30.255665 30.217518 30.222176 30.173807 30.112993 30.250460 30.226675 30.311831 30.156046 30.025311 30.117624 30.307274 30.365961 30.399809 30.394629 30.336018 30.279751 30.254108 30.075289 29.906574 29.799170 29.706911 29.793491 29.816803 30.078529 30.227724 29.789635 29.590458 29.472832 29.534098 29.570518 29.568781 29.479349 29.376587 29.504196 29.452065 29.433632 29.403881 29.254103 29.122019 29.373001 29.320808 29.287510 28.703701 27.386944 25.953377 24.440971 24.159819 24.139872 24.096008 23.986887 23.917946 23.749706 23.641115 23.465702 23.298634 23.268959 23.226227 23.114786 23.043810 22.931816 22.806429 22.730825 22.691063 22.551014 22.547623 22.476562 22.424444 22.442951 22.245707 22.207693 22.117111 22.030918 21.987772 21.966791 21.788767 21.725554 21.553944 21.391924 21.228228 21.064514 20.901762 20.740440 20.565554 20.369135 20.157656 19.934267 19.699409 19.452221 19.190544 18.917576 18.639061 18.354269 18.062372 17.761862 17.454203 17.218964 17.010851 16.880024 16.822884 16.532871 16.658010 16.721228 16.756128 16.696251 16.642336 16.641687 16.534386 16.451826 16.454651 16.442963 16.402708 16.314703 16.264408 16.095127 16.177614 16.285021 16.335661 16.333447 16.376566 16.394243 16.342707 16.368338 16.333590 16.374653 16.349215 16.249737 16.148006 15.021667 13.912433 13.654169 13.831043 13.966870 14.093093 14.163164 14.144373 14.169637 14.119357 13.999676 14.042110 13.871650 13.768270 13.578105 13.335009 13.247961 13.271484 13.268916 13.263409 13.259768 13.257184 13.254991 13.252885 13.250693 13.248283 13.245768 13.243275 13.240902 13.238679 13.236629 13.234785 13.233190 13.231863 13.230835 13.230093 13.229850 13.230433 13.232226 13.235593 13.241761 13.255117 13.286849 13.346205 13.414318 13.329323 13.294588 13.310844 13.213845 13.213017 13.268819 13.184377 13.286584 13.479759 13.508080 13.559277 13.786263 14.267472 14.304738 14.182658 13.840172 13.369679 12.852505 12.323645 11.887276 11.727450 11.784437 11.877115 12.038818 12.204114 12.203038 12.043780 11.629285 11.204700 10.925788 10.749630 10.675797 10.711826 10.748215
22.409342 22.305811 22.242002 22.305542 22.214008 22.379152 22.258451 22.273066 22.166004 22.137756 21.954428 21.996614 21.945906 22.342960 23.330156 24.386679 25.403364 26.355919 27.134029 27.151264 27.075565 27.163288 27.174696 27.053387 27.075098 27.075598 26.997805 26.837088 26.691319 26.615028 26.533510 26.607857 26.643627 26.564276 26.599007 26.855885 27.215395 27.671789 28.160622 28.669167 29.206909 29.778198 30.370689 30.985563 31.613888 32.238010 32.843803 33.377262 33.708546 33.959820 34.188202 34.415119 34.644104 34.861786 35.022038 35.144669 35.286846 35.482128 35.716450 35.896027 36.021984 36.072697 36.088951 36.177917 36.374813 36.419178 36.426075 36.682236 36.808022 36.762371 36.829350 36.848614 36.852741 36.774525 36.965996 36.982334 37.011585 36.996765 36.895046 37.060318 37.042324 36.980228 36.875130 36.735752 36.521198 36.319839 36.171379 36.040943 34.930355 33.006359 31.153042 30.513336 30.427959 30.380596 30.326120 30.304808 30.254276 30.232563 30.328260 30.295362 30.133898 30.168436 30.241095 30.245892 30.285162 30.275835 30.241837 30.152971 30.311493 30.319811 30.321602 30.283869 30.202732 30.096502 29.958984 29.828972 29.731319 29.645813 29.656471 29.684225 30.096411 30.292412 29.838617 29.636566 29.517012 29.561682 29.605923 29.555201 29.451372 29.369989 29.527710 29.362164 29.448700 29.461411 29.264509 29.247578 29.323622 29.232075 29.257658 28.985826 27.646055 26.108030 24.616299 24.277874 24.311872 24.236143 24.103249 24.049404 23.816628 23.758657 23.592821 23.427427 23.352297 23.336138 23.250616 23.081558 22.982683 22.846031 22.868679 22.692282 22.659801 22.533876 22.573349 22.475510 22.441202 22.223936 22.230904 22.204294 22.157946 22.144520 22.072033 21.940363 21.899122 21.783293 21.634315 21.476381 21.316502 21.157284 20.999825 20.825008 20.621386 20.399771 20.165070 19.917093 19.654734 19.375418 19.087206 18.790302 18.482752 18.161650 17.821968 17.462250 17.077955 16.859934 16.749893 16.712988 16.701946 16.638926 16.702404 16.750818 16.712612 16.563963 16.450560 16.408756 16.427786 16.445896 16.439404 16.401310 16.338919 16.301064 16.229408 16.061161 16.123024 16.190191 16.237932 16.325239 16.395142 16.366707 16.372753 16.357933 16.359894 16.359047 16.370310 16.295460 15.041731 13.783891 13.709838 13.871972 14.040973 14.107222 14.166600 14.137597 14.206863 14.155359 14.049248 14.005165 13.927903 13.686275 13.504363 13.364234 13.258468 13.277461 13.271770 13.264105 13.258998 13.255431 13.252287 13.249278 13.246340 13.243403 13.240438 13.237467 13.234527 13.231648 13.228869 13.226214 13.223709 13.221394 13.219332 13.217463 13.215890 13.214864 13.214446 13.215075 13.218340 13.227285 13.253267 13.329562 13.343183 13.232565 13.270177 13.359079 13.213104 13.371593 13.343116 13.394457 13.406631 13.472493 13.504306 13.440260 13.850068 14.209780 14.213171 13.973106 13.604538 13.118874 12.549842 12.083779 11.878921 11.860370 11.874274 11.899092 11.995209 12.223338 12.138469 12.138108 12.166358 11.642309 11.317773 11.119948 11.042223 11.091388 11.279649
22.368752 22.499956 22.449739 22.410843 22.444536 22.415024 22.324192 22.279810 22.083817 21.889259 22.006462 21.973646 22.551785 23.423944 24.388283 25.423559 26.534527 27.324976 27.215359 27.198442 27.138094 27.147831 27.255053 27.260120 27.111313 27.125671 27.081362 26.939615 26.888491 26.810923 26.706261 26.670315 26.648577 26.571461 26.843742 27.220367 27.662191 28.160042 28.683517 29.218885 29.775749 30.360640 30.966076 31.592306 32.239601 32.905239 33.583363 34.259029 34.618633 34.740776 34.876667 35.029732 35.184708 35.312893 35.432537 35.564445 35.703049 35.863754 36.113594 36.277027 36.368931 36.423031 36.372437 36.543442 36.665649 36.723686 36.964424 37.151344 37.305164 37.158424 37.079170 37.152256 37.185463 37.216404 37.312073 37.400543 37.459774 37.324703 37.141701 37.182259 37.336941 37.372910 37.110832 36.912022 36.732197 36.570766 36.462372 36.289932 35.083363 33.233398 31.538321 30.399443 30.203476 30.259489 30.277704 30.321529 30.126173 30.157061 30.361715 30.362814 30.122906 30.084658 30.150097 30.189629 30.254049 30.309984 30.054256 30.087629 30.228075 30.238173 30.250515 30.206263 30.078508 29.935108 29.805361 29.744032 29.682535 29.615520 29.575121 29.543354 30.124847 30.351255 29.862068 29.647688 29.533653 29.564081 29.635799 29.569700 29.494490 29.559280 29.406492 29.265295 29.379980 29.375708 29.230251 29.157267 29.199615 29.178995 29.216320 28.978067 27.781021 26.286442 24.668262 24.508432 24.417505 24.427526 24.304792 24.100447 24.000334 23.840540 23.663685 23.582626 23.531469 23.370255 23.336128 23.216768 23.117397 23.002426 22.940624 22.880373 22.748642 22.715414 22.537811 22.517473 22.438728 22.353439 22.319450 22.350719 22.232424 22.221045 22.147554 22.090025 22.063881 21.997110 21.872898 21.725452 21.571074 21.413925 21.259956 21.090075 20.878090 20.644619 20.396318 20.132156 19.849773 19.556730 19.254143 18.940048 18.610813 18.260588 17.879740 17.459915 16.955996 16.608934 16.598965 16.604559 16.615726 16.613873 16.654613 16.642174 16.582117 16.462275 16.351587 16.353168 16.423244 16.456560 16.458080 16.431265 16.384892 16.291790 16.199417 16.087797 16.033936 16.077198 16.093269 16.298136 16.526087 16.351183 16.379683 16.321091 16.275265 16.416779 16.307577 16.093395 14.816670 13.753387 13.723059 13.919912 13.997707 14.070567 14.064445 14.138595 14.146829 14.151602 14.030581 13.900843 13.734205 13.514197 13.358785 13.186383 13.273945 13.278518 13.271431 13.265096 13.259091 13.254095 13.249938 13.246147 13.242476 13.238821 13.235148 13.231488 13.227878 13.224321 13.220820 13.217377 13.213989 13.210700 13.207545 13.204511 13.201511 13.198382 13.195574 13.193658 13.193207 13.197097 13.214814 13.283206 13.392475 13.223066 13.288139 13.316556 13.168032 13.329718 13.314590 13.488297 13.434311 13.525047 13.536393 13.349744 13.792031 14.204587 14.156641 13.857115 13.448144 12.960843 12.445769 11.945987 12.009790 11.995743 11.949406 11.896179 11.864693 11.946161 11.751667 11.672350 11.764823 11.802057 11.518829 11.326046 11.214404 11.161999 11.013972
22.568312 22.559677 22.450764 22.443010 22.412897 22.450563 22.191782 22.098064 22.078196 22.089491 22.060291 22.532549 23.471058 24.396370 25.357639 26.390295 27.377092 27.135746 27.092333 27.190437 27.184986 27.166624 27.301220 27.375357 27.231014 27.175966 27.050549 26.880739 26.904675 26.913960 26.755331 26.672581 26.644110 26.694036 27.158995 27.618938 28.110714 28.636589 29.187426 29.745964 30.320852 30.917915 31.531342 32.157799 32.799408 33.456646 34.126629 34.809917 35.216450 35.254250 35.362755 35.474030 35.590305 35.713444 35.845119 35.986538 36.122860 36.260117 36.266888 36.603642 36.753284 36.845222 36.834866 36.986721 37.189346 37.456612 37.502190 37.472893 37.405262 37.413940 37.374653 37.419933 37.439701 37.391315 37.575768 37.568104 37.656879 37.666782 37.387474 37.404533 37.535046 37.466675 37.251308 37.059425 36.858212 36.821846 36.719112 36.541958 35.216881 33.702473 32.306576 31.213083 30.519163 30.232267 30.313160 30.366873 30.279335 30.149181 30.223316 30.162289 30.075378 30.045231 30.094604 30.110321 30.205307 30.239737 30.047251 30.059071 30.111549 30.154591 30.183458 30.113148 30.011169 29.902069 29.803675 29.755945 29.709902 29.656199 29.587852 29.578754 30.155693 30.204983 29.814966 29.582735 29.386751 29.482515 29.584417 29.665442 29.707773 29.546043 29.391920 29.457899 29.521185 29.532211 29.352339 29.223349 29.150049 29.115610 29.051718 28.336340 27.331457 26.171730 24.944843 24.677710 24.614508 24.520126 24.426697 24.346058 24.110031 23.941769 23.839972 23.665873 23.583393 23.440636 23.347763 23.297106 23.272079 23.179104 23.119860 23.012712 22.924429 22.801735 22.711672 22.615656 22.583746 22.466146 22.403347 22.304432 22.269346 22.325857 22.316593 22.294239 22.273874 22.145441 22.059059 21.964813 21.821829 21.665726 21.514641 21.364168 21.142628 20.892641 20.622112 20.335009 20.040958 19.737436 19.422945 19.093855 18.744471 18.368153 17.957911 17.515345 17.096977 16.797945 16.726831 16.676058 16.625904 16.583773 16.589714 16.459261 16.437531 16.396996 16.366859 16.367109 16.412502 16.507397 16.512730 16.496769 16.461281 16.296682 16.159159 16.051867 16.009077 16.007408 16.083677 16.190754 16.488218 16.433615 16.408787 16.332624 16.326454 16.388674 16.361477 15.737456 14.529604 13.571713 13.781550 13.885566 13.915318 13.988123 14.052328 14.117027 14.149872 14.118981 14.026883 13.801037 13.581636 13.341167 13.248870 13.247748 13.293609 13.276274 13.270548 13.265154 13.259194 13.253314 13.248160 13.243389 13.238798 13.234300 13.229851 13.225452 13.221130 13.216875 13.212670 13.208484 13.204282 13.200025 13.195660 13.191177 13.186510 13.181678 13.176634 13.171508 13.166948 13.164693 13.171191 13.213500 13.342249 13.170063 13.171702 13.189821 13.182364 13.252031 13.389236 13.423409 13.507380 13.527579 13.487394 13.565758 13.845344 14.219339 14.163414 13.784672 13.305614 12.821283 12.400343 12.114049 12.215402 12.139430 12.005893 11.859172 11.682894 11.561221 11.399400 11.392035 11.413574 11.300048 11.133303 11.004326 10.880417 10.720378 10.642241
22.493168 22.551056 22.510773 22.477396 22.403130 22.363100 22.289425 22.063328 22.155449 22.558424 23.107828 23.713753 24.468391 25.340914 26.278261 27.333904 27.425756 27.128199 27.166874 27.234770 27.206579 27.262806 27.367043 27.321758 27.152891 27.110506 27.002584 26.928652 26.949442 26.852461 26.674295 26.605806 26.623051 27.026382 27.547354 28.048624 28.567272 29.110014 29.675177 30.253384 30.844658 31.451241 32.066200 32.689381 33.321045 33.956757 34.576504 35.132664 35.442455 35.561531 35.709976 35.846066 35.980293 36.119076 36.266987 36.421402 36.590885 36.725662 36.793179 36.928780 37.105778 37.317696 37.385403 37.527683 37.740875 37.971298 37.767746 37.723774 37.640953 37.636257 37.604912 37.623718 37.699295 37.655479 37.632484 37.646378 37.612579 37.622982 37.582233 37.547962 37.576824 37.591461 37.458229 37.290539 37.182617 36.956886 36.938961 36.758244 35.581470 34.260296 33.009453 31.926115 31.052361 30.443361 30.295759 30.340702 30.251944 30.143656 30.148361 30.093348 30.051941 30.179289 30.169115 30.202005 30.214510 30.143412 29.983900 29.970783 30.008099 30.077347 30.120010 30.064360 29.996838 29.933731 29.884762 29.835686 29.768465 29.711081 29.658258 29.613449 30.055775 30.044382 29.595882 29.476263 29.305801 29.351955 29.428764 29.456404 29.518894 29.499969 29.486309 29.550007 29.513918 29.480371 29.352545 29.183828 29.113579 29.135275 28.817535 28.066023 27.145971 26.098633 24.952515 24.732891 24.778620 24.707373 24.573692 24.442715 24.307890 24.027412 23.815693 23.764320 23.685080 23.653067 23.556448 23.370646 23.393805 23.245832 23.203142 23.066908 23.022909 22.906017 22.797018 22.775600 22.693123 22.557821 22.410318 22.483862 22.361012 22.371225 22.278536 22.309198 22.330446 22.258249 22.171932 22.093449 22.035717 21.802977 21.681269 21.632524 21.411976 21.115721 20.824606 20.532827 20.232458 19.921429 19.597513 19.253662 18.886360 18.494457 18.104973 17.744400 17.427235 17.177322 17.042324 16.936689 16.836535 16.736155 16.635286 16.512342 16.309288 16.375669 16.352596 16.339596 16.385494 16.481236 16.450623 16.389912 16.286922 16.159674 16.089161 16.043373 15.939634 15.888147 15.973708 16.057261 16.104551 16.200329 16.292992 16.288198 16.346634 16.356564 16.394140 15.970930 14.787645 13.643020 13.765773 13.865082 13.972666 14.022553 14.031204 14.048288 14.046975 14.048241 13.907150 13.678647 13.449337 13.285749 13.220071 13.260204 13.296913 13.274919 13.269756 13.264295 13.258721 13.252765 13.246580 13.240652 13.235082 13.229729 13.224505 13.219366 13.214306 13.209302 13.204332 13.199347 13.194288 13.189079 13.183636 13.177835 13.171615 13.164934 13.157510 13.149143 13.140145 13.131064 13.123804 13.133629 13.322555 13.059131 13.044703 13.095824 13.099158 13.208294 13.233939 13.439226 13.282586 13.305803 13.385015 13.372722 13.608407 13.821123 13.985398 13.607208 13.097157 12.638767 12.252299 11.997986 12.407937 12.286682 12.029259 11.756718 11.453401 11.233854 11.106850 10.988762 10.967758 10.795780 10.807596 10.653151 10.592127 10.610431 10.514735
22.568062 22.629700 22.641481 22.566936 22.389034 22.229168 22.234056 22.225903 22.407465 23.308100 24.110205 24.833672 25.536478 26.288792 27.098885 27.478336 27.223190 27.232288 27.282419 27.317312 27.231627 27.204121 27.272232 27.223919 26.965979 27.014502 27.056242 27.041519 27.030771 26.939501 26.557619 26.632347 27.040907 27.524988 28.017958 28.517370 29.037228 29.582563 30.152433 30.742857 31.347582 31.960327 32.576679 33.196388 33.816734 34.417866 34.971859 35.443302 35.729927 35.894508 36.086605 36.239605 36.381989 36.533737 36.695480 36.866779 37.024815 37.143261 37.203182 37.280128 37.400612 37.635761 37.785042 37.976856 38.239841 38.475986 38.352379 38.188869 38.009216 37.927578 37.883186 37.834675 37.751850 37.641903 37.710152 37.709526 37.775269 37.724113 37.748432 37.647530 37.671856 37.673569 37.646221 37.489517 37.378380 37.232513 37.098434 36.950638 36.080795 34.865250 33.647263 32.513401 31.489769 30.640989 30.249853 30.298670 30.239899 30.191109 30.162140 30.112537 30.068550 30.082514 30.133617 30.165560 30.150503 30.071135 29.923241 29.926893 29.964903 30.036646 30.074154 30.028736 29.986639 29.958464 29.955833 29.911514 29.816072 29.714966 29.580292 29.745029 29.989965 30.151012 29.762997 29.509340 29.350235 29.318136 29.380484 29.417408 29.450352 29.472082 29.483265 29.472155 29.407907 29.345100 29.263763 29.109827 29.155251 29.263102 28.740244 27.998453 27.134722 26.166164 25.189276 24.877989 24.833929 24.781948 24.698236 24.579535 24.394569 24.184835 23.964905 23.830311 23.678810 23.727846 23.635006 23.559086 23.406677 23.282410 23.200806 23.157042 23.145754 23.008478 22.962399 22.893423 22.773504 22.666458 22.561468 22.527884 22.490398 22.400972 22.441267 22.466667 22.356609 22.336412 22.280777 22.150290 22.086298 21.938591 21.835684 21.749239 21.611826 21.307722 21.021154 20.730272 20.427067 20.112623 19.778816 19.421707 19.044998 18.673534 18.330070 18.021700 17.743526 17.512459 17.344917 17.198187 17.062391 16.928560 16.796635 16.669621 16.501554 16.386244 16.277670 16.267866 16.310797 16.369871 16.368826 16.290276 16.204256 16.058386 15.960322 16.049305 15.920055 15.857174 15.997337 15.902261 15.936414 15.954514 16.139587 16.293354 16.468012 16.374804 16.362316 16.221107 14.873178 13.636765 13.680762 13.781913 13.903679 13.942281 13.976056 14.015900 14.030406 13.912525 13.727637 13.513558 13.299438 13.151541 13.141621 13.289082 13.290847 13.275257 13.268520 13.263430 13.257548 13.251197 13.244723 13.238224 13.231813 13.225611 13.219574 13.213632 13.207762 13.201943 13.196129 13.190258 13.184286 13.178143 13.171682 13.164717 13.156935 13.148099 13.138143 13.126595 13.113014 13.097120 13.077205 13.048649 12.843968 12.782872 12.829471 12.979747 12.959253 13.030121 12.795808 12.961134 12.839893 12.831292 12.786612 13.082693 13.265125 13.388680 13.447855 13.245008 12.817105 12.379682 11.993578 11.681276 11.922276 12.166761 11.901852 11.507529 11.146470 10.834999 10.895206 10.775971 10.719960 10.571376 10.570832 10.562094 10.529346 10.505135 10.407151
22.689684 22.687880 22.703821 22.492430 22.380917 22.322149 22.410944 22.331379 23.033030 24.078766 25.039822 25.944048 26.655430 27.340178 27.490511 27.471952 27.361597 27.350470 27.369629 27.374512 27.263357 27.290466 27.264023 27.202200 27.044630 27.036629 27.113205 27.141983 27.136719 27.030626 26.617922 27.039995 27.515833 28.010426 28.508259 29.004400 29.516773 30.057581 30.626499 31.218834 31.828028 32.446800 33.065975 33.683262 34.286388 34.847042 35.350182 35.762833 36.020714 36.212143 36.431145 36.623116 36.777664 36.945366 37.122841 37.304031 37.460747 37.574711 37.638153 37.685417 37.723782 37.950340 37.993172 38.296467 38.578564 38.662727 38.619637 38.504158 38.364223 38.279491 38.181049 38.087978 37.994431 37.901604 37.810596 37.823711 37.895939 37.915722 37.915710 37.912155 37.933743 37.931660 37.777668 37.686882 37.555595 37.362820 37.324524 37.156895 36.680347 35.543922 34.288525 33.056675 31.866219 30.740339 30.207449 30.275099 30.208824 30.201132 30.192215 30.140375 30.053320 30.036467 30.076881 30.107533 30.106327 30.041117 29.952377 29.935934 29.996632 30.071465 30.051119 29.991018 29.947924 29.940126 29.999626 29.933365 29.812519 29.693542 29.675064 29.669956 29.867586 30.144892 29.939367 29.680616 29.360439 29.359484 29.406229 29.465021 29.493006 29.467684 29.456961 29.362267 29.287392 29.235638 29.182741 29.155764 29.155851 29.052002 28.833649 28.124146 27.252909 26.327044 25.412916 24.967403 24.890959 24.830570 24.766283 24.624987 24.437834 24.220383 24.021122 23.918812 23.678978 23.789963 23.707926 23.603235 23.482246 23.428648 23.327122 23.245911 23.172474 23.001471 23.056545 22.932861 22.810181 22.830212 22.722645 22.638302 22.559158 22.553522 22.496714 22.393417 22.365805 22.317398 22.274324 22.180344 22.204370 22.031998 21.929771 21.785318 21.598509 21.474581 21.215157 20.931480 20.630234 20.316233 19.972961 19.607933 19.238441 18.897459 18.585419 18.298637 18.037619 17.810400 17.620907 17.444582 17.278294 17.115631 16.954927 16.799385 16.630724 16.431572 16.133684 16.168591 16.227917 16.271189 16.280811 16.242577 16.180414 16.089987 16.023485 16.092714 15.954511 15.842199 15.758116 15.748014 15.846278 15.845233 16.039732 16.136677 16.334473 16.319626 16.368214 16.036045 14.759124 13.623097 13.531477 13.516451 13.688044 13.844649 13.893856 14.013129 14.018128 13.863799 13.593294 13.375442 13.238203 12.985200 13.081604 13.261249 13.286094 13.276579 13.268443 13.262196 13.255894 13.249286 13.242508 13.235645 13.228726 13.221853 13.215058 13.208340 13.201676 13.195046 13.188395 13.181656 13.174756 13.167545 13.159883 13.151569 13.142295 13.131715 13.119265 13.104598 13.086652 13.063972 13.031824 12.969943 12.770601 12.711489 12.785729 12.816372 12.925616 12.819700 12.709280 12.794299 12.773832 12.812997 12.886970 12.838077 12.929446 12.978502 12.973636 12.824356 12.486753 12.077637 11.678903 11.295804 11.243722 11.537381 11.344725 11.035322 10.873885 10.832377 10.770275 10.724686 10.605835 10.601439 10.518533 10.537303 10.481748 10.481400 10.423672
22.692223 22.578333 22.447819 22.472618 22.351654 22.328112 22.335630 22.805492 23.825550 24.838152 25.855892 26.930542 27.494528 27.551416 27.546276 27.549831 27.506813 27.479563 27.441467 27.430492 27.378229 27.295202 27.184040 27.189304 27.110001 27.102335 27.129597 27.113821 27.169800 26.947235 26.997784 27.472311 27.973888 28.480259 28.988312 29.493355 30.000038 30.531261 31.093782 31.684978 32.296368 32.918556 33.540966 34.158886 34.745522 35.274292 35.730953 36.083939 36.319199 36.530880 36.758858 36.980343 37.165096 37.357044 37.558601 37.760029 37.916237 38.018036 38.067600 38.106159 38.145519 38.066368 38.375206 38.598560 38.738178 38.788479 38.784134 38.632175 38.610054 38.519234 38.429447 38.339455 38.249386 38.162762 38.108406 38.076675 38.068272 38.091652 38.110722 38.121727 38.130032 38.157032 38.011112 37.920311 37.763393 37.556648 37.501385 37.280960 37.024132 36.113411 34.784210 33.501690 32.259186 30.999470 30.218124 30.286982 30.214798 30.107828 30.223989 30.216871 30.114923 29.991701 30.031361 30.060293 30.078363 30.041271 29.934486 29.813732 29.975967 30.041445 29.987816 29.899380 29.817574 29.765680 29.779810 29.770721 29.714952 29.644926 29.623585 29.679667 29.901936 30.132420 29.902779 29.622751 29.363165 29.375221 29.415260 29.461203 29.519194 29.464548 29.364473 29.310955 29.214579 29.191669 29.129301 29.072056 29.096281 29.117395 29.026051 28.427631 27.488981 26.510664 25.551935 25.060709 24.938330 24.875599 24.780333 24.630726 24.608671 24.308489 24.114639 23.887115 23.879452 23.851130 23.688812 23.682270 23.580402 23.517561 23.454630 23.381048 23.244270 23.104677 23.122114 23.024160 22.950626 22.928076 22.805948 22.797014 22.712181 22.688618 22.555643 22.464180 22.460667 22.341000 22.256924 22.277893 22.147865 22.081949 21.924854 21.867867 21.744585 21.544399 21.415567 21.162285 20.863113 20.547958 20.191883 19.818911 19.463593 19.138519 18.840445 18.565273 18.311769 18.083174 17.873764 17.674379 17.483789 17.298018 17.115034 16.934202 16.745865 16.528477 16.274483 16.099171 16.164968 16.183903 16.185307 16.176043 16.133852 16.077909 16.018148 15.969217 15.868577 15.747655 15.592787 15.672326 15.657147 15.726464 15.820514 15.909321 16.046684 16.194010 16.338974 15.721147 14.537164 13.717562 13.489135 13.516062 13.562139 13.635201 13.826389 13.837115 13.901803 13.922047 13.490070 13.288289 13.300316 13.230580 13.239467 13.256529 13.283492 13.278403 13.269192 13.261492 13.254503 13.247349 13.239882 13.232375 13.224929 13.217551 13.210218 13.202921 13.195620 13.188286 13.180877 13.173297 13.165433 13.157143 13.148270 13.138660 13.128037 13.115879 13.101405 13.083786 13.061671 13.031899 12.987878 12.899244 12.932723 12.812823 12.796529 12.702765 12.854900 12.729725 12.724430 12.701672 12.734100 12.699924 12.717656 12.639804 12.631701 12.608815 12.543828 12.402857 12.113194 11.751615 11.374858 10.984435 10.807135 10.870398 10.835738 10.787693 10.771398 10.783010 10.652518 10.553965 10.596155 10.559749 10.505763 10.519571 10.486989 10.466744 10.343211
22.573257 22.580507 22.423698 22.402876 22.405413 22.589205 22.940449 23.820499 24.726713 25.628572 26.535093 27.468004 27.609228 27.528936 27.695574 27.613298 27.580883 27.549076 27.514084 27.534435 27.427992 27.227926 27.081594 27.173565 27.157866 27.143801 27.133898 27.020336 26.932173 26.874504 27.400543 27.911619 28.424852 28.938835 29.454105 29.969149 30.481125 30.999809 31.550760 32.140408 32.757336 33.387703 34.018665 34.642273 35.213989 35.707897 36.111111 36.412617 36.636585 36.864468 37.094959 37.320259 37.550282 37.778858 38.005127 38.230392 38.389317 38.457890 38.479069 38.517231 38.603031 38.708874 38.872879 38.945129 38.928589 38.904556 38.904682 38.913166 38.843117 38.763039 38.678318 38.591721 38.505375 38.435497 38.380867 38.337654 38.307865 38.298023 38.310898 38.321011 38.323647 38.315895 38.265728 38.045563 37.902668 37.823219 37.621250 37.415653 36.943665 36.000973 34.848835 33.632446 32.411320 31.241575 30.313593 30.284386 30.286753 30.216328 30.121695 30.071983 30.023155 29.958628 29.994122 30.025078 30.056999 30.051924 29.928532 29.818226 29.943804 30.007959 30.014221 29.853966 29.747847 29.662523 29.667841 29.661156 29.625896 29.566704 29.543421 29.647490 29.762114 30.021736 29.907341 29.498104 29.281450 29.342428 29.393147 29.437838 29.504267 29.401655 29.333578 29.352392 29.349192 29.235426 29.125469 28.987186 28.949453 28.946932 29.038916 28.651695 27.605053 26.575712 25.561609 25.004053 24.975664 24.940971 24.778378 24.714045 24.606655 24.394535 24.233395 23.988235 23.792576 23.859760 23.762833 23.759903 23.648779 23.649357 23.555412 23.396326 23.334131 23.217127 23.110580 23.105370 23.040459 23.017935 22.989107 22.900621 22.915751 22.868490 22.741913 22.620029 22.544573 22.441887 22.322166 22.215588 22.082678 22.043213 21.954239 21.851498 21.722099 21.548018 21.555986 21.446320 21.128365 20.809628 20.428467 20.043993 19.693539 19.377197 19.088608 18.820148 18.569086 18.334513 18.109423 17.892662 17.683865 17.479940 17.277760 17.075766 16.869066 16.643282 16.399471 16.153460 16.147528 16.107925 16.107664 16.095671 16.074194 16.051807 15.973448 15.874203 15.789309 15.685182 15.588833 15.476707 15.602990 15.713650 15.731896 15.703936 15.725119 16.049490 16.118109 15.600000 14.760380 14.049166 13.577319 13.604133 13.544337 13.554345 13.651338 13.773168 13.898184 13.890278 13.442292 13.204292 13.297722 13.275905 13.248149 13.252794 13.282502 13.280177 13.270980 13.261950 13.253261 13.244876 13.236712 13.228626 13.220622 13.212701 13.204806 13.196917 13.189003 13.181030 13.172942 13.164660 13.156024 13.146873 13.137094 13.126439 13.114553 13.101057 13.085099 13.065106 13.039248 13.002860 12.947985 12.842905 12.682728 12.750382 12.670776 12.799869 12.716780 12.666526 12.617247 12.745782 12.659309 12.616886 12.689442 12.560246 12.383007 12.272965 12.153267 11.996611 11.771699 11.558198 11.315631 10.958646 10.832935 10.891716 10.818192 10.753704 10.675315 10.646185 10.562752 10.641240 10.616043 10.610103 10.541077 10.518023 10.498489 10.439283 10.423772
22.648321 22.559679 22.471907 22.380758 23.069674 23.670679 24.254557 24.968155 25.753033 26.512209 27.211245 27.677282 27.638540 27.595350 27.668232 27.671480 27.625671 27.580835 27.591263 27.540609 27.388401 27.163507 27.086878 27.085440 27.172983 27.148611 27.190062 27.232159 27.250816 27.424538 27.841400 28.351833 28.872135 29.391741 29.911194 30.430880 30.951801 31.472065 31.998682 32.584278 33.214417 33.858170 34.504494 35.134827 35.697872 36.143665 36.485271 36.735512 36.971474 37.208317 37.440903 37.668343 37.900963 38.144100 38.401390 38.666248 38.879032 38.861771 38.851410 38.883942 38.955322 39.134804 39.126720 39.130909 39.022297 39.049606 39.184353 39.157360 39.092411 39.015312 38.932610 38.846886 38.766403 38.698578 38.640511 38.591164 38.552013 38.526276 38.520176 38.523922 38.519596 38.508717 38.477917 38.221161 38.101460 37.972630 37.795387 37.559845 36.894653 35.904766 34.765305 33.562511 32.393383 31.358324 30.542307 30.234577 30.223404 30.259867 30.150208 30.048639 29.997532 29.757048 29.954397 29.997435 30.048378 30.078537 29.997757 29.820450 29.919844 30.013596 30.094559 29.862120 29.751055 29.669752 29.633501 29.602623 29.569660 29.528582 29.539774 29.581163 29.629093 29.682909 29.699202 29.400826 29.277874 29.301126 29.393711 29.474537 29.528870 29.343740 29.300201 29.227938 29.304468 29.295927 29.141529 29.019142 28.951773 28.884285 29.031906 28.510641 27.616705 26.630198 25.626230 25.041945 25.084578 24.959600 24.859091 24.780697 24.655611 24.453096 24.284998 24.070608 23.917990 23.904818 23.917542 23.784401 23.743771 23.694735 23.580595 23.490391 23.429609 23.369322 23.284817 23.245884 23.188765 23.166748 23.129948 23.065271 22.998432 22.933865 22.909145 22.797255 22.720587 22.565332 22.392178 22.408888 22.233795 22.170965 21.905092 21.779266 21.624542 21.554436 21.497139 21.425346 21.336740 21.081701 20.659496 20.264090 19.917519 19.610418 19.328440 19.063856 18.811995 18.568701 18.332294 18.102840 17.880041 17.660353 17.441488 17.221899 16.997665 16.759037 16.507250 16.259445 16.155518 16.116915 16.059740 16.013483 16.000685 15.990064 15.953912 15.891703 15.816011 15.716202 15.563690 15.542998 15.392896 15.671503 15.438761 15.600204 15.597974 15.812771 15.826946 15.435633 14.895601 14.336145 13.822548 13.726566 13.661995 13.627441 13.652049 13.567286 13.702032 13.649727 13.252152 13.210075 13.193367 13.315454 13.275545 13.272981 13.283279 13.281280 13.273222 13.262386 13.251945 13.242345 13.233257 13.224495 13.215950 13.207452 13.198969 13.190494 13.182002 13.173450 13.164783 13.155903 13.146639 13.136835 13.126312 13.114944 13.102373 13.087961 13.070892 13.049524 13.020795 12.979529 12.915433 12.823895 12.660766 12.597955 12.644278 12.752734 12.714926 12.612082 12.624135 12.663764 12.696108 12.776437 12.652553 12.552074 12.271317 11.979062 11.865903 11.790051 11.659912 11.619466 11.432114 11.173523 10.963311 10.771192 10.727955 10.697639 10.732628 10.676317 10.637502 10.636074 10.663648 10.571301 10.518803 10.526390 10.529114 10.470378 10.375086
22.534693 22.566324 22.622511 23.158676 23.983679 24.740774 25.492126 26.190886 26.913692 27.624866 27.686949 27.669325 27.715813 27.708210 27.694317 27.739668 27.649399 27.568220 27.545650 27.442095 27.399544 27.219370 27.098978 27.061050 27.191544 27.350464 27.489725 27.606140 27.716360 27.970491 28.347736 28.803429 29.317314 29.837849 30.355860 30.873957 31.394070 31.917772 32.449566 33.036911 33.687450 34.336044 34.985981 35.631031 36.204765 36.570557 36.835003 37.086563 37.330299 37.565510 37.795967 38.024578 38.253830 38.481171 38.731892 38.996861 39.175835 39.136642 39.109543 39.128185 39.217514 39.226971 39.241123 39.146626 39.149719 39.396584 39.466583 39.422207 39.352631 39.272808 39.188534 39.102566 39.024059 38.955059 38.893787 38.839573 38.793987 38.758213 38.733528 38.722187 38.703693 38.674343 38.628742 38.401749 38.216217 38.135715 37.954762 37.683453 36.920204 35.863998 34.688259 33.484241 32.371227 31.405205 30.625284 30.201729 30.145014 30.153463 30.113863 30.040480 29.913515 29.806768 29.889935 29.999598 30.075218 30.150829 30.072018 29.882015 29.856405 29.964144 30.071838 29.866028 29.755859 29.671495 29.614655 29.571838 29.535789 29.500937 29.482756 29.513119 29.589573 29.644510 29.523890 29.376627 29.324169 29.335203 29.301289 29.300228 29.423779 29.426371 29.313454 29.188091 29.141666 29.221222 29.070526 28.911734 29.031393 28.948647 29.133392 28.584743 27.696301 26.746397 25.795765 25.159454 25.106340 25.045950 24.975502 24.800707 24.576935 24.412546 24.266792 24.147064 24.014584 23.981047 23.790989 23.877514 23.767553 23.734858 23.653990 23.577959 23.524694 23.482697 23.441784 23.355246 23.365950 23.237507 23.251923 23.163242 23.090427 23.072113 22.994097 22.949804 22.863180 22.727533 22.654766 22.549105 22.391783 22.296398 22.045326 21.949860 21.825047 21.680340 21.498718 21.422455 21.344770 21.321745 20.872440 20.472658 20.133129 19.835789 19.560846 19.297068 19.040461 18.789906 18.544954 18.305357 18.070469 17.837273 17.604416 17.370222 17.130737 16.878445 16.615776 16.366123 16.191877 16.194904 15.941676 15.945704 15.965914 15.955313 15.945275 15.923665 15.862255 15.843491 15.758446 15.669756 15.550187 15.409897 15.479652 15.557445 15.566562 15.549446 15.590751 15.360661 15.003877 14.592473 14.175179 14.019635 13.894626 13.849286 13.639157 13.461370 13.668598 13.521167 13.365823 13.335562 13.347659 13.311113 13.203239 13.296006 13.285808 13.283190 13.274095 13.262214 13.250600 13.239842 13.229891 13.220373 13.211041 13.201860 13.192795 13.183784 13.174764 13.165689 13.156503 13.147132 13.137398 13.127152 13.116243 13.104486 13.091619 13.076990 13.059554 13.037693 13.007964 12.964881 12.894446 12.780035 12.666326 12.620504 12.577117 12.712004 12.757236 12.722125 12.771294 12.624631 12.564089 12.522449 12.467453 12.529819 12.205602 11.938533 11.689065 11.631997 11.557415 11.479771 11.363605 11.234179 11.100159 10.902307 10.836221 10.739780 10.665543 10.665404 10.628587 10.735910 10.751478 10.791223 10.774323 10.783624 10.622930 10.492843 10.419047
22.551950 22.668192 23.440371 24.160322 24.943251 25.726255 26.583355 27.434301 27.727512 27.773769 27.718313 27.831602 27.873060 27.805090 27.726482 27.781643 27.620203 27.441324 27.411932 27.391758 27.335999 27.213295 27.088121 27.152588 27.421726 27.638369 27.829035 27.998575 28.184853 28.471836 28.840155 29.273186 29.758604 30.274626 30.788216 31.300648 31.821806 32.357021 32.911877 33.505138 34.157921 34.812885 35.459438 36.104351 36.678856 36.952957 37.218189 37.469799 37.709286 37.939320 38.164562 38.389320 38.609524 38.822212 39.051323 39.264801 39.350109 39.345352 39.234844 39.252159 39.327324 39.328594 39.311447 39.501427 39.595261 39.770939 39.757225 39.695969 39.616268 39.530293 39.442661 39.355980 39.276814 39.205616 39.141403 39.083767 39.032909 38.987640 38.949574 38.922485 38.889671 38.840851 38.764286 38.592575 38.389122 38.208794 38.079826 37.860508 37.024921 35.872879 34.622704 33.392094 32.286057 31.342072 30.596487 30.169588 30.073046 30.010065 30.028996 30.024652 29.973505 29.877863 29.993980 30.165390 30.153521 30.101749 29.987419 29.701370 29.803421 29.881201 29.901724 29.839987 29.744068 29.662100 29.601645 29.553028 29.510294 29.469872 29.456640 29.407921 29.497812 29.579372 29.445488 29.218075 29.272903 29.315502 29.240431 29.131029 29.224592 29.368202 29.337460 29.263662 29.203957 29.113436 29.027023 29.027748 28.983656 28.991198 29.271755 28.812143 27.867212 26.900003 25.927767 25.251694 25.142139 25.147425 25.033651 24.881315 24.643927 24.497080 24.277361 24.130968 23.996737 24.003332 23.852240 23.874376 23.871140 23.815722 23.700668 23.639709 23.602062 23.581583 23.570684 23.575357 23.430952 23.396547 23.485382 23.375957 23.356625 23.301172 23.293409 23.183046 23.077026 22.984522 22.867256 22.765631 22.549212 22.424953 22.255457 22.104511 21.956100 21.807604 21.659719 21.534588 21.481184 21.333996 21.041334 20.666445 20.339756 20.053175 19.782539 19.517845 19.257681 19.001772 18.749170 18.500717 18.254854 18.010082 17.765175 17.518253 17.264954 16.998943 16.723440 16.453955 16.228859 16.190319 16.049456 15.926539 15.925560 15.898729 15.902046 15.910850 15.851029 15.853226 15.849836 15.726915 15.531900 15.313638 15.340084 15.380233 15.401114 15.366529 15.365255 15.350101 15.147411 14.896847 14.653399 14.348244 14.041611 13.854791 13.640183 13.501576 13.519656 13.517262 13.469093 13.427416 13.352255 13.334614 13.277790 13.305753 13.292766 13.285100 13.273292 13.261064 13.249009 13.237573 13.226766 13.216408 13.206324 13.196437 13.186713 13.177105 13.167557 13.158005 13.148378 13.138623 13.128590 13.118100 13.107025 13.095179 13.082360 13.068103 13.051508 13.030672 13.002777 12.959543 12.888114 12.755368 12.615817 12.652305 12.687462 12.656068 12.658531 12.716454 12.734180 12.752995 12.555437 12.484563 12.502004 12.396633 12.128329 11.828507 11.615977 11.588747 11.516257 11.435503 11.337868 11.233008 11.125642 11.020905 10.822535 10.651711 10.765401 10.636213 10.783115 10.891628 10.992879 11.033357 11.009099 10.951758 10.780464 10.527802 10.392848
22.921801 23.853216 24.558413 25.201874 25.882122 26.613310 27.405325 27.881866 27.899885 27.868879 27.879871 27.945381 27.788002 27.778519 27.741499 27.744156 27.623484 27.481123 27.414001 27.416016 27.337446 27.217388 27.201546 27.449024 27.706783 27.948326 28.174040 28.386446 28.622196 28.937202 29.311085 29.734312 30.200638 30.704657 31.210861 31.725533 32.257587 32.806789 33.377071 33.978020 34.622410 35.284401 35.932728 36.547749 37.083603 37.400349 37.641552 37.879059 38.108387 38.330833 38.547359 38.760391 38.970333 39.165134 39.380985 39.475353 39.520561 39.486694 39.382084 39.517059 39.600143 39.631035 39.693642 39.891232 40.006874 40.103043 40.052338 39.968166 39.872116 39.778572 39.688686 39.602081 39.522881 39.450912 39.384415 39.323502 39.268330 39.215733 39.167870 39.128361 39.082191 39.014721 38.909439 38.720871 38.571541 38.308762 38.222370 38.054798 37.234352 35.938721 34.572014 33.253639 32.112743 31.171223 30.474339 30.121311 30.014919 29.874905 29.979055 30.058996 30.033604 29.791986 30.000883 30.075277 30.099890 30.054579 29.929562 29.792948 29.850445 29.888847 29.843351 29.794237 29.710524 29.636087 29.580482 29.540684 29.501722 29.447603 29.338356 29.472902 29.474895 29.483593 29.452261 29.249081 29.220940 29.362524 29.259762 29.183352 29.296148 29.245707 29.263613 29.243591 29.213842 29.120911 29.046658 29.086479 29.092554 29.090956 29.053415 29.013268 28.130907 27.129620 26.096840 25.307451 25.232769 25.175854 25.006880 24.922829 24.817081 24.580711 24.378553 24.188646 24.083517 24.012547 23.998022 23.964718 23.970436 23.874166 23.724373 23.689125 23.722277 23.740580 23.729372 23.702354 23.584707 23.565115 23.640501 23.638258 23.635950 23.622972 23.552214 23.506853 23.347990 23.219824 23.052412 22.907005 22.785637 22.595228 22.445105 22.300140 22.133530 21.966202 21.801640 21.653601 21.513742 21.238400 21.123911 20.837563 20.530203 20.257792 19.993198 19.729544 19.467518 19.206127 18.946676 18.689415 18.433727 18.178846 17.923386 17.665064 17.398720 17.118469 16.830114 16.537094 16.269861 16.210854 16.102472 15.992076 15.819156 15.797373 15.821899 15.852245 15.855506 15.867801 15.859129 15.693511 15.508153 15.335473 15.113876 15.236714 15.300028 15.331549 15.378791 15.413402 15.356688 15.383686 14.735739 14.406917 14.115191 13.919158 13.730158 13.526039 13.483089 13.550217 13.561239 13.514795 13.422487 13.348142 13.295326 13.309490 13.301218 13.285686 13.271457 13.259161 13.247029 13.235243 13.223787 13.212618 13.201797 13.191256 13.180911 13.170715 13.160642 13.150633 13.140630 13.130547 13.120309 13.109736 13.098706 13.087084 13.074720 13.061420 13.046707 13.028913 13.004221 12.965202 12.891709 12.706625 12.657029 12.651665 12.606949 12.720373 12.681361 12.715270 12.701296 12.791269 12.796236 12.626198 12.508089 12.458876 12.174219 11.804336 11.636216 11.563094 11.487975 11.408981 11.320333 11.225893 11.128612 11.028107 10.907964 10.763791 10.801128 10.869142 10.990130 11.125728 11.120494 11.179679 11.146877 11.044241 10.804831 10.552428 10.357254
24.128498 25.118469 25.745525 26.288059 26.850939 27.420963 27.947166 27.883289 27.935026 27.867661 27.922817 27.968048 27.975908 27.959757 27.828802 27.710104 27.616972 27.565622 27.540363 27.482193 27.381933 27.408871 27.547857 27.785622 28.029606 28.273975 28.520313 28.764248 29.032043 29.369976 29.759499 30.182037 30.637119 31.129503 31.631102 32.153183 32.694778 33.255978 33.838451 34.447567 35.091141 35.755230 36.398121 36.999615 37.520393 37.872311 38.094769 38.311253 38.523468 38.733124 38.938919 39.136574 39.329121 39.506744 39.603626 39.569118 39.568977 39.609810 39.790375 39.917160 39.998390 40.044243 40.093079 40.183090 40.310535 40.415985 40.336788 40.219704 40.113136 40.016533 39.926590 39.841167 39.762180 39.689960 39.622768 39.559563 39.500790 39.443584 39.388905 39.340317 39.280125 39.191483 39.055164 38.856266 38.667431 38.497746 38.371468 38.153831 37.653713 36.063679 34.539825 33.061676 31.812391 30.872524 30.291641 30.106083 30.006790 29.925383 30.063448 30.017698 29.952747 29.780586 29.874786 29.992865 30.043808 29.991526 29.895529 29.832855 29.840654 29.891932 29.857407 29.746067 29.662407 29.582470 29.494961 29.588108 29.540550 29.487919 29.448681 29.429102 29.367558 29.354979 29.327055 29.316811 29.195763 29.322388 29.283731 29.217876 29.196333 29.190605 29.189793 29.177576 29.201542 29.102022 29.037848 28.965546 29.120739 29.146299 28.943472 29.211617 28.423817 27.374594 26.371256 25.566170 25.339935 25.242592 25.111551 24.946548 24.786537 24.605448 24.388275 24.162123 24.096535 24.082039 24.110641 24.077822 24.020737 23.939077 23.730564 23.862013 23.995333 24.055313 24.058893 23.977642 23.913374 23.836941 23.886255 24.008568 24.022682 23.890221 23.869202 23.765129 23.656664 23.518366 23.339350 23.162880 22.965523 22.728138 22.702320 22.505854 22.314598 22.128057 21.943094 21.766079 21.588432 21.364813 21.227016 21.020174 20.719158 20.457869 20.199535 19.937336 19.672716 19.405153 19.137716 18.871819 18.607382 18.343517 18.078640 17.809673 17.531223 17.239103 16.937555 16.620323 16.297382 16.188004 16.092541 16.032778 15.841601 15.697970 15.751097 15.798708 15.788393 15.814744 15.925250 15.673700 15.513497 15.377128 15.274460 15.173654 15.240534 15.331241 15.370009 15.410495 15.251333 14.981159 14.669149 14.385116 14.167039 13.974454 13.790148 13.624670 13.531855 13.515361 13.678965 13.601616 13.488375 13.381361 13.296229 13.313086 13.305880 13.284884 13.270052 13.256668 13.244517 13.232486 13.220545 13.208842 13.197420 13.186257 13.175337 13.164626 13.154072 13.143635 13.133286 13.122972 13.112623 13.102130 13.091377 13.080292 13.068829 13.056998 13.044655 13.031113 13.013160 12.986054 12.853945 12.627858 12.695113 12.598736 12.554381 12.746282 12.657343 12.679113 12.576435 12.703480 12.632140 12.658438 12.575073 12.399652 12.143320 11.744007 11.616884 11.547118 11.472715 11.393616 11.308865 11.219717 11.127357 11.030301 10.932049 10.817439 10.770143 10.948496 11.115602 11.223842 11.240627 11.281541 11.286345 11.033886 10.798502 10.560779 10.391411
25.564585 26.545345 26.946022 27.435621 27.889091 28.121368 27.972805 27.969625 27.970764 27.894957 27.947130 27.979441 27.983789 27.952328 27.803198 27.615713 27.627501 27.649069 27.652565 27.556225 27.553970 27.680237 27.866642 28.104856 28.350904 28.601759 28.861628 29.130524 29.418617 29.776237 30.185972 30.618708 31.068424 31.551538 32.051353 32.579205 33.129917 33.701843 34.295071 34.914124 35.562271 36.228935 36.870438 37.466949 37.986805 38.357391 38.563847 38.755424 38.944527 39.138435 39.337917 39.522278 39.663887 39.709915 39.629181 39.543030 39.558777 39.903503 40.172852 40.452446 40.422272 40.467499 40.419426 40.388412 40.590347 40.739063 40.583416 40.451172 40.341633 40.245373 40.157314 40.074535 39.996387 39.924183 39.856499 39.792110 39.730858 39.671196 39.613029 39.559036 39.481728 39.365761 39.191437 39.007832 38.819656 38.690422 38.376766 38.130695 37.808228 36.109821 34.459267 32.832272 31.320780 30.433083 30.196663 30.115847 30.056545 30.054579 30.027199 29.990183 29.892712 29.810326 29.806971 29.947248 30.007652 29.873682 29.830980 29.768339 29.780142 29.789936 29.770781 29.713778 29.740561 29.689760 29.608686 29.644215 29.573946 29.503639 29.434111 29.376366 29.294590 29.269571 29.237814 29.256380 29.234474 29.156040 29.262728 29.263620 29.241272 29.130150 29.123230 29.128735 29.187904 29.172239 29.081253 28.997452 29.021826 28.938152 29.002441 29.355824 28.746788 27.595629 26.521284 25.635258 25.343994 25.214712 25.111822 24.944996 24.795012 24.567835 24.396467 24.125183 24.056026 24.042324 24.082205 24.001110 24.017561 23.951466 24.043333 24.286926 24.473978 24.560339 24.544638 24.430428 24.312468 24.274416 24.326572 24.397339 24.402460 24.353161 24.271673 24.153067 23.993502 23.879932 23.627190 23.452217 23.222057 23.047297 22.929029 22.702566 22.493755 22.288670 22.084368 21.882719 21.678804 21.541224 21.337191 21.133640 20.904871 20.657160 20.405607 20.143547 19.873270 19.597755 19.322212 19.048298 18.775875 18.503901 18.230442 17.951420 17.661276 17.360495 17.046917 16.710424 16.329638 16.041271 15.997732 15.995031 15.932082 15.862254 15.682036 15.687760 15.651505 15.594366 15.839030 15.659439 15.505697 15.378303 15.284183 15.247778 15.117203 15.260283 15.351012 15.235425 15.021550 14.814847 14.578329 14.370446 14.173261 13.985794 13.801698 13.618800 13.491496 13.414495 13.691539 13.703052 13.554134 13.402390 13.299826 13.350183 13.306477 13.283926 13.268451 13.254495 13.241430 13.229170 13.216897 13.204754 13.192861 13.181227 13.169839 13.158679 13.147730 13.136979 13.126411 13.115983 13.105626 13.095335 13.085033 13.074689 13.064357 13.054302 13.044987 13.037365 13.032430 13.012803 12.781716 12.553324 12.613708 12.624487 12.539332 12.571939 12.565639 12.505309 12.476372 12.512866 12.560403 12.605168 12.540878 12.328530 12.117699 11.877955 11.608412 11.539781 11.464160 11.384211 11.300599 11.214268 11.125969 11.033863 10.934119 10.803962 10.891265 11.091510 11.278346 11.332893 11.401405 11.373205 11.264715 11.058918 10.823550 10.524069 10.342829
27.065569 27.670067 27.897369 28.108271 28.067225 28.012497 27.984108 28.071150 28.052095 27.959877 28.048553 27.997387 27.996536 27.901707 27.695581 27.708006 27.786077 27.762150 27.708754 27.640013 27.779341 27.962578 28.172844 28.414255 28.663929 28.920660 29.190643 29.479473 29.787962 30.159298 30.592661 31.045641 31.499046 31.974407 32.469242 33.000420 33.559132 34.141499 34.746864 35.378471 36.036488 36.709641 37.355740 37.954006 38.474857 38.860123 39.061291 39.216740 39.364990 39.537971 39.747486 39.821293 39.787399 39.835777 39.998775 40.067204 40.248516 40.294189 40.512932 40.707172 40.683460 40.759621 40.727142 40.659470 40.842655 40.980736 40.797638 40.665020 40.558601 40.465893 40.381569 40.302475 40.226791 40.154900 40.086872 40.021351 39.957829 39.898277 39.842312 39.787327 39.684399 39.522480 39.323116 39.149471 38.953548 38.766876 38.536217 38.194283 37.664066 36.049545 34.413216 32.800461 31.236719 30.305641 30.198851 30.133009 30.093725 30.027761 29.982199 29.861609 29.886463 29.924706 29.781345 29.923626 30.058043 29.959627 29.871000 29.771770 29.736923 29.746809 29.731152 29.718035 29.748022 29.737410 29.694492 29.652168 29.559328 29.468622 29.368217 29.301517 29.216324 29.271906 29.267250 29.278070 29.094835 29.052237 29.168135 29.198162 29.109838 29.103441 29.095787 29.081450 29.052921 29.189211 29.127981 29.040705 28.969080 28.884880 28.992207 29.163460 28.756865 27.604601 26.464769 25.355404 25.385908 25.301514 25.136112 24.975899 24.794201 24.553289 24.357136 24.143915 24.099331 24.000240 23.972187 23.824995 24.082012 23.974867 24.493757 24.925303 25.151951 25.175884 25.085621 24.955637 24.816158 24.754827 24.803509 24.899883 24.829481 24.777487 24.757669 24.620949 24.374971 24.229445 24.098261 23.776894 23.470661 23.304035 23.091150 22.901819 22.675552 22.448347 22.224766 21.999695 21.765518 21.604475 21.448275 21.271971 21.034657 20.847368 20.605396 20.344681 20.068222 19.784546 19.500673 19.218924 18.938940 18.658945 18.376842 18.087843 17.789623 17.480412 17.153732 16.798443 16.390905 15.866368 15.964810 15.969812 15.879284 15.780074 15.737760 15.577968 15.573270 15.587033 15.691938 15.611235 15.462863 15.334779 15.308978 15.274116 15.150377 14.953309 15.187050 15.194231 14.914595 14.736133 14.538122 14.350245 14.171525 14.001656 13.833436 13.661053 13.521799 13.494497 13.633003 13.675531 13.570138 13.423659 13.375189 13.357265 13.304340 13.283037 13.266500 13.252522 13.239008 13.225739 13.212911 13.200362 13.187994 13.175940 13.164145 13.152604 13.141352 13.130395 13.119696 13.109231 13.098977 13.088933 13.079186 13.069834 13.061042 13.053387 13.048299 13.048870 13.059166 12.996129 12.762148 12.643600 12.658374 12.626168 12.521814 12.670249 12.568954 12.553405 12.660443 12.675477 12.612105 12.668584 12.569796 12.295938 12.091684 11.697761 11.608480 11.534041 11.458729 11.378727 11.295373 11.209885 11.124174 11.039625 10.938139 10.797502 10.838788 11.158882 11.323856 11.419353 11.457898 11.394040 11.245750 11.136096 10.782195 10.489628 10.288660
27.704472 27.970215 28.165087 28.214926 28.026270 28.006569 28.072071 28.138363 28.213861 28.197655 28.146975 28.083202 28.000099 27.912069 27.945837 27.796631 27.788401 27.920380 27.742430 27.811069 28.053196 28.273804 28.493542 28.730331 28.979259 29.234695 29.504766 29.801853 30.136038 30.519491 30.981726 31.466234 31.940842 32.401012 32.879536 33.410259 33.977131 34.572502 35.194492 35.843136 36.518234 37.197727 37.855598 38.463905 38.990841 39.356686 39.582581 39.690952 39.749519 39.790966 39.821205 39.894550 40.075924 40.287975 40.530411 40.641953 40.676777 40.676979 40.783783 40.954048 40.865139 40.945675 40.978912 40.923229 40.980846 41.042675 40.975277 40.860332 40.763783 40.678120 40.599346 40.524956 40.453278 40.383286 40.315048 40.248207 40.181690 40.120659 40.084499 40.021751 39.869137 39.661961 39.423679 39.300907 39.187389 38.972084 38.738609 38.425594 37.538673 36.109749 34.662746 33.252682 31.957634 30.908707 30.283697 30.106644 30.061743 30.039965 29.983452 29.939257 29.925892 29.914782 29.882271 29.827337 29.901949 29.806807 29.845791 29.734274 29.759344 29.755527 29.745905 29.737160 29.741787 29.723621 29.688303 29.633162 29.547543 29.447247 29.338331 29.248474 29.219776 29.360043 29.354080 29.204350 29.076254 29.049095 29.168463 29.217093 29.208633 29.129763 29.093678 29.091406 29.131964 29.149475 29.150845 29.103996 29.002085 28.989220 28.809418 29.041698 28.419493 27.412537 26.347458 25.410501 25.292891 25.293797 25.131964 24.940201 24.753933 24.629190 24.339643 24.219082 24.148315 24.038401 24.055105 24.099859 24.133801 24.323612 24.921036 25.515884 25.929279 25.835369 25.637514 25.432766 25.300390 25.255507 25.292870 25.369179 25.225101 25.092037 25.084072 24.982731 24.861540 24.660885 24.470205 24.196688 23.892504 23.587257 23.397743 23.133289 22.870119 22.618628 22.379566 22.116072 21.989853 21.771868 21.536455 21.352308 21.181326 21.033661 20.807583 20.547043 20.261454 19.966803 19.673319 19.382689 19.093954 18.805443 18.515558 18.221247 17.918661 17.602373 17.263432 16.892195 16.493969 16.085863 16.042854 15.970222 15.806038 15.781576 15.791024 15.680068 15.521895 15.563768 15.589745 15.507727 15.380033 15.262662 15.291910 15.254035 15.167467 15.032123 14.986461 15.086757 14.905426 14.694217 14.506830 14.339268 14.183928 14.033389 13.883902 13.740593 13.633595 13.626716 13.609853 13.586634 13.538846 13.456337 13.207004 13.321115 13.299616 13.282526 13.265489 13.250699 13.236861 13.222934 13.209061 13.195722 13.182844 13.170329 13.158170 13.146323 13.134858 13.123752 13.112992 13.102585 13.092607 13.083046 13.074026 13.065736 13.058625 13.053813 13.053739 13.060335 13.068909 13.028270 12.822353 12.563984 12.598298 12.526776 12.610832 12.524975 12.398384 12.443988 12.470352 12.628957 12.591503 12.677877 12.580188 12.334041 12.018750 11.695844 11.606935 11.534680 11.458685 11.378530 11.294567 11.208428 11.122181 11.039484 10.941256 10.821810 10.948105 11.195810 11.443500 11.522861 11.508485 11.446996 11.271225 11.106441 10.785956 10.497877 10.354081
27.985638 28.231344 28.309200 28.247406 28.017357 28.157026 28.142067 28.167416 28.278332 28.290051 28.163181 28.070526 27.992096 28.045967 27.969185 27.876345 27.772198 27.765532 27.879589 28.121168 28.372206 28.606989 28.831886 29.063515 29.304411 29.552017 29.809820 30.093931 30.435242 30.857870 31.356203 31.886662 32.409916 32.844406 33.276043 33.797550 34.381069 35.002064 35.649239 36.323143 37.014061 37.696896 38.361813 38.991562 39.546764 39.813332 39.941887 39.916321 39.912823 39.814777 39.870968 40.143341 40.380989 40.602665 40.791069 40.830357 40.885925 40.955372 41.105938 41.200329 41.146515 41.106247 41.160774 41.101368 41.085712 41.099007 41.086494 41.029171 40.954369 40.881618 40.810787 40.741989 40.674843 40.608288 40.541492 40.473351 40.402439 40.332470 40.339340 40.281612 40.117569 39.862804 39.590633 39.461151 39.316528 39.061275 38.834034 38.707714 37.711319 36.381100 35.014133 33.691154 32.468426 31.421389 30.610111 30.072685 30.034109 29.986198 29.955809 29.956165 29.925037 29.793932 29.812723 29.843218 29.860733 29.889851 29.735716 29.758400 29.751905 29.768719 29.764122 29.751274 29.747385 29.709431 29.672956 29.631104 29.551001 29.447784 29.311502 29.280216 29.381203 29.363989 29.279432 29.208773 29.185184 29.106430 29.221891 29.296659 29.207926 29.144316 29.086494 29.122999 29.162268 29.112522 29.030268 28.917147 28.921301 28.964495 28.834063 28.987614 28.301252 27.373344 26.411058 25.555954 25.301832 25.238260 25.081013 24.948105 24.782354 24.595236 24.422781 24.200603 24.132191 24.087484 24.041170 24.166786 24.171738 24.712473 25.315865 25.935965 26.482363 26.354214 26.057451 25.857384 25.736183 25.659552 25.541985 25.509651 25.351950 25.377048 25.163580 25.165339 25.023661 24.915834 24.732777 24.513151 24.290428 24.107126 23.660952 23.396622 23.025951 22.810036 22.519342 22.286997 22.084766 21.814661 21.622368 21.388447 21.278851 21.149035 20.999842 20.749355 20.451303 20.139774 19.834074 19.533571 19.236471 18.942305 18.650589 18.355257 18.051338 17.731966 17.388102 17.014780 16.563862 16.050585 16.020454 15.908345 15.739966 15.776304 15.734716 15.633965 15.471519 15.537868 15.520845 15.421223 15.320800 15.270483 15.245289 15.255751 15.156648 15.039124 15.034337 14.779757 14.842793 14.641752 14.481831 14.341158 14.206179 14.070910 13.935050 13.805218 13.697371 13.640491 13.586770 13.544638 13.496072 13.393456 13.193978 13.287728 13.297195 13.282382 13.265525 13.249254 13.234603 13.220170 13.205687 13.191364 13.177598 13.164412 13.151742 13.139688 13.128089 13.116904 13.106187 13.096069 13.086563 13.077710 13.069745 13.063024 13.058190 13.056227 13.057415 13.058153 13.046984 12.960463 12.752223 12.618275 12.606885 12.532854 12.572594 12.598653 12.611504 12.593668 12.594966 12.604032 12.559153 12.398814 12.583161 12.219427 12.127494 11.749643 11.613293 11.545830 11.466726 11.382504 11.295037 11.206666 11.118857 11.031067 10.920649 10.822324 10.954818 11.240743 11.406335 11.498967 11.459488 11.452240 11.391281 11.183481 10.868070 10.537979 10.290996
28.324291 28.383310 28.299490 28.267849 28.157640 28.174751 28.159378 28.261686 28.327976 28.243580 28.116199 27.967327 28.020481 28.019464 27.969151 27.853132 27.720942 27.928621 28.221346 28.474678 28.720625 28.962135 29.191866 29.417395 29.646492 29.878254 30.114761 30.361288 30.654966 31.106901 31.677376 32.330261 32.909279 33.367092 33.650898 34.140411 34.769291 35.437584 36.132446 36.839256 37.532684 38.214733 38.883213 39.465427 39.776115 39.869385 39.947800 40.025055 40.177891 40.254482 40.303730 40.455486 40.674335 40.876053 40.975655 41.116917 41.206379 41.281006 41.264843 41.464466 41.559975 41.474834 41.440250 41.312218 41.207203 41.143242 41.148975 41.154133 41.124092 41.073421 41.015610 40.954376 40.891937 40.828808 40.763367 40.692997 40.611053 40.514530 40.528210 40.502926 40.372551 40.099194 39.846218 39.675999 39.499660 39.209522 38.911011 38.722797 38.001839 36.709454 35.352585 34.039703 32.821217 31.747681 30.850107 30.167431 30.001188 29.963274 29.926823 29.940475 29.924412 29.855083 29.848845 29.891027 29.921783 29.918242 29.811493 29.827194 29.644867 29.779139 29.777126 29.753588 29.721519 29.682344 29.647823 29.629896 29.577566 29.477755 29.340961 29.306835 29.252254 29.193937 29.113251 29.005644 29.026415 29.079041 29.252380 29.226185 29.133184 29.067125 29.140545 29.163267 29.008701 29.045679 28.977125 28.889330 28.865847 28.916227 28.940563 29.077553 28.411810 27.506439 26.560627 25.612043 25.318880 25.231155 25.120050 24.970913 24.750175 24.552486 24.383856 24.221922 24.172386 24.170599 24.146091 24.064939 24.291382 25.006563 25.684484 26.347334 26.572914 26.453587 26.306730 26.248831 26.087124 25.910616 25.747990 25.640104 25.545898 25.477715 25.346657 25.210548 25.157011 25.044600 24.837322 24.606047 24.503733 24.272701 24.002739 23.628773 23.291727 22.957085 22.649752 22.346006 22.115084 21.973387 21.703905 21.506731 21.270632 21.255775 21.144119 20.977604 20.644657 20.302174 19.981457 19.672421 19.370340 19.073454 18.782303 18.490597 18.192286 17.882458 17.549694 17.165615 16.596209 15.964588 15.982592 15.917989 15.843310 15.791389 15.744522 15.661251 15.543835 15.398005 15.484778 15.371544 15.314352 15.296514 15.309335 15.329499 15.137722 14.995603 14.984323 14.889028 14.633503 14.581044 14.468811 14.355461 14.237322 14.113752 13.986789 13.863029 13.749990 13.656881 13.572871 13.513597 13.472135 13.359377 13.248631 13.279680 13.298491 13.282535 13.265808 13.248641 13.232405 13.216983 13.201865 13.186982 13.172512 13.158627 13.145341 13.132890 13.121082 13.109840 13.099359 13.089680 13.080853 13.072972 13.066368 13.061252 13.057581 13.055142 13.049816 13.039753 13.026915 12.880334 12.692213 12.606503 12.566090 12.635687 12.466911 12.556533 12.511700 12.514140 12.619136 12.503769 12.463069 12.418146 12.412376 12.292388 12.067768 11.661946 11.633681 11.565918 11.478414 11.385805 11.293509 11.201029 11.107363 11.010421 10.904170 10.838514 11.013268 11.258710 11.422146 11.512240 11.486177 11.434853 11.330726 11.195379 10.891943 10.570619 10.336267
28.492737 28.380449 28.353554 28.250355 28.214500 28.201881 28.250511 28.411673 28.351812 28.224277 28.075712 28.010262 28.106821 28.047165 28.007462 27.942434 27.972731 28.282518 28.581390 28.847136 29.097710 29.340382 29.575558 29.800478 30.018126 30.230968 30.433708 30.622530 30.808474 31.342648 32.096691 32.761116 33.379002 33.962914 33.960094 34.416962 35.195164 35.949574 36.679119 37.385647 38.079514 38.766605 39.414131 39.681347 39.817703 39.893719 39.966961 40.176670 40.390400 40.544659 40.674831 40.794270 41.005001 41.118999 41.229507 41.263184 41.441437 41.560246 41.591106 41.716682 41.797626 41.776028 41.618046 41.445168 41.212696 41.131233 41.179295 41.246475 41.262959 41.247894 41.210014 41.160435 41.105419 41.047974 40.986778 40.919556 40.849571 40.704624 40.629700 40.644081 40.542519 40.328415 39.913033 39.827038 39.632359 39.417583 39.082569 38.863743 38.416294 37.061405 35.627800 34.280651 33.044952 31.928301 30.968012 30.223652 29.964556 29.862692 29.877621 29.944073 29.905199 29.647230 29.816717 29.866615 29.897223 29.903893 29.805586 29.622063 29.651243 29.739645 29.763437 29.745256 29.688446 29.637753 29.599108 29.544081 29.575428 29.495079 29.351336 29.280958 29.187588 29.139441 29.072826 29.012625 28.989132 28.922813 29.117483 29.146631 29.024723 29.009068 29.106277 29.100216 29.031996 28.979946 28.942432 28.887424 28.973251 28.937767 28.789610 28.951038 28.646574 27.772810 26.758463 25.681852 25.321938 25.190447 25.091034 24.942059 24.665800 24.487385 24.254061 24.190729 24.178959 24.160763 24.089493 24.113420 24.536827 25.265095 26.006096 26.631123 26.525650 26.424768 26.315592 26.304462 26.156788 26.082851 25.861639 25.783865 25.743940 25.437843 25.337257 25.209408 25.057270 24.880594 24.819286 24.735308 24.544968 24.360235 24.148872 23.846354 23.584696 23.257448 22.872931 22.470840 22.311596 21.991468 21.829811 21.586468 21.459518 21.351377 21.226126 20.936142 20.752693 20.434422 20.107807 19.792767 19.487841 19.191210 18.903790 18.626381 18.351912 18.074785 17.768705 17.332722 16.624763 15.975080 15.900976 15.460804 15.649670 15.844693 15.759402 15.689756 15.634867 15.533261 15.418149 15.329361 15.315536 15.306210 15.302114 15.287342 15.248604 15.149934 14.934344 14.741348 14.611666 14.524565 14.477201 14.385347 14.279516 14.164170 14.043785 13.923074 13.803971 13.683450 13.555634 13.484114 13.486997 13.309701 13.346331 13.325886 13.301836 13.284517 13.265383 13.247683 13.230451 13.213586 13.197227 13.181535 13.166421 13.152022 13.138527 13.125862 13.113940 13.102770 13.092544 13.083278 13.074987 13.067657 13.061368 13.055976 13.050523 13.043684 13.036387 13.027330 13.013857 12.867764 12.664235 12.538063 12.603916 12.538275 12.448563 12.433767 12.407231 12.442573 12.315410 12.482271 12.539517 12.461699 12.341101 12.315756 11.986833 11.568160 11.659129 11.588459 11.485579 11.388819 11.292119 11.194677 11.095388 10.991261 10.890772 10.852583 10.994423 11.265634 11.448040 11.492283 11.508876 11.450421 11.346473 11.216449 10.864071 10.547433 10.376686
28.543556 28.476416 28.336498 28.358770 28.383257 28.349428 28.328457 28.440527 28.436241 28.282909 28.110283 28.230469 28.168983 28.108244 28.072615 28.096817 28.289362 28.604303 28.920170 29.211597 29.483799 29.739037 29.979660 30.211340 30.432110 30.638027 30.822062 30.978928 31.137333 31.873684 32.576080 33.244389 33.878250 34.477650 34.804314 35.167042 35.833714 36.552017 37.246506 37.922047 38.586971 39.234406 39.628323 39.778645 39.912674 40.002148 40.103664 40.408535 40.636700 40.825630 40.994164 41.090374 41.266903 41.314075 41.432869 41.512459 41.728268 41.746796 41.838074 41.859055 41.882675 41.694729 41.438805 41.394035 41.356415 41.296288 41.245808 41.338211 41.395069 41.408863 41.394001 41.356339 41.309433 41.258858 41.203911 41.158684 41.041439 40.857193 40.769779 40.688942 40.688065 40.531757 40.081257 39.950069 39.705544 39.466473 39.277859 38.965618 38.688305 37.200863 35.722355 34.339493 33.075520 31.939117 30.938604 30.173399 30.000288 29.929316 29.961119 29.948145 29.900276 29.816551 29.700129 29.837772 29.878323 29.858875 29.753275 29.574194 29.576637 29.655499 29.699215 29.721704 29.664976 29.599609 29.572418 29.577429 29.598576 29.503136 29.373772 29.286217 29.273645 29.193329 29.107044 29.011414 28.984978 28.914650 29.033552 29.114847 28.878136 29.022482 29.105501 29.073242 29.034794 28.973660 28.931932 28.908783 28.903412 28.960413 28.833956 29.015039 29.004290 28.212179 27.053129 25.854336 25.344814 25.356409 25.065762 24.795721 24.767330 24.527225 24.189617 24.217484 24.148043 24.162590 24.173735 24.179718 24.757071 25.502806 26.232088 26.599585 26.529085 26.375834 26.381145 26.298695 26.182947 25.938662 25.761084 25.735941 25.661695 25.489861 25.250990 25.143213 24.907402 24.851009 24.757706 24.532366 24.404215 24.383043 24.193352 24.047144 23.736208 23.405609 23.062675 22.681564 22.459307 22.126883 21.939013 21.696436 21.479944 21.458044 21.385094 21.088907 20.747082 20.487865 20.169004 19.862856 19.566774 19.281666 19.011009 18.762062 18.539637 18.333096 18.080690 17.689245 16.990049 16.300680 15.660400 15.478549 15.563808 15.620964 15.704533 15.679492 15.671098 15.583907 15.456289 15.365651 15.312012 15.291200 15.278711 15.215724 15.227210 15.184960 14.998703 14.836349 14.696502 14.596474 14.516197 14.430983 14.335953 14.227988 14.115718 14.002988 13.877470 13.727827 13.614850 13.551649 13.488386 13.370627 13.438806 13.370053 13.308927 13.287179 13.265539 13.245941 13.227866 13.210114 13.192327 13.175074 13.158775 13.143575 13.129702 13.116843 13.104809 13.093663 13.083473 13.074205 13.065775 13.057984 13.050616 13.043431 13.036708 13.030629 13.025502 13.021475 13.014315 12.839561 12.666414 12.541291 12.589771 12.459562 12.504608 12.476148 12.441727 12.441971 12.481313 12.491513 12.524384 12.528337 12.412154 12.269205 11.984975 11.669966 11.668657 11.596316 11.493503 11.390976 11.288793 11.186232 11.082445 10.978549 10.870529 10.809995 10.966857 11.152166 11.364167 11.511230 11.482609 11.351818 11.178745 11.051534 10.927171 10.590039 10.404829
28.583048 28.452660 28.429234 28.396538 28.391832 28.410641 28.438663 28.482218 28.429583 28.283768 28.287636 28.276947 28.187683 28.129562 28.091852 28.204222 28.514429 28.883179 29.238924 29.564138 29.866438 30.144911 30.396893 30.636103 30.868181 31.090757 31.298214 31.475477 31.546196 32.372005 33.086208 33.779835 34.442184 35.061279 35.554897 35.959229 36.563412 37.217060 37.843304 38.448532 39.019753 39.512222 39.829670 39.943333 40.049992 40.168140 40.431286 40.700043 40.908836 41.093933 41.286999 41.396580 41.401024 41.509624 41.611683 41.764305 41.815292 41.867817 41.769405 41.798859 41.748020 41.544819 41.461193 41.463963 41.483242 41.482140 41.481598 41.502377 41.537926 41.581547 41.596272 41.560703 41.517612 41.464931 41.409195 41.359314 41.162788 40.932934 40.826218 40.735138 40.620094 40.486858 40.270660 39.956402 39.877911 39.674805 39.422379 39.155369 38.328094 37.065678 35.666866 34.237160 32.898636 31.722811 30.680756 30.156837 29.964949 29.911049 29.892361 29.933500 29.880886 29.797880 29.605118 29.767494 29.830248 29.781733 29.672121 29.514078 29.561892 29.620272 29.664459 29.686436 29.533588 29.541359 29.580648 29.615307 29.586348 29.510855 29.412209 29.305731 29.158987 29.262249 29.149004 29.036613 28.774677 28.925331 29.001495 29.033779 28.912788 29.056536 29.187771 29.063179 29.057198 28.932945 28.916161 28.879013 28.683636 28.871109 28.851011 28.927347 29.039066 28.648083 27.284184 25.954971 25.428917 25.320747 25.185638 24.979614 24.747225 24.489405 24.280701 24.198126 24.160183 24.215401 24.125277 24.250660 24.981815 25.732103 26.477859 26.590313 26.562778 26.369102 26.356380 26.276564 26.138948 25.943756 25.757271 25.652422 25.550728 25.379183 25.190201 24.978441 24.937374 24.713417 24.659489 24.651318 24.618742 24.375088 24.237492 24.054085 23.787136 23.503481 23.305233 22.945705 22.533319 22.221144 21.983698 21.776546 21.639816 21.674868 21.511101 21.176968 21.001856 20.631649 20.218105 19.863518 19.585163 19.329044 19.093569 18.884304 18.709890 18.528738 18.340122 18.211157 17.790987 16.990726 16.218624 15.455901 15.652192 15.684556 15.618269 15.560058 15.597965 15.524122 15.417050 15.332071 15.265380 15.230617 15.270573 15.181689 15.307788 15.185359 15.041686 14.904883 14.760805 14.620077 14.535171 14.481133 14.407543 14.315326 14.209126 14.107638 14.027447 14.026076 13.775395 13.702448 13.603506 13.562651 13.412148 13.391466 13.322352 13.292323 13.267873 13.244910 13.224554 13.205873 13.186962 13.168274 13.150344 13.133665 13.118743 13.105229 13.092676 13.081113 13.070481 13.060673 13.051538 13.043065 13.035357 13.028431 13.022625 13.019012 13.018680 13.021538 13.035858 12.827404 12.581061 12.551702 12.596816 12.419885 12.447221 12.541374 12.512511 12.570277 12.571114 12.499888 12.536661 12.539501 12.340448 12.118400 11.867056 11.680552 11.768393 11.603893 11.496806 11.389063 11.282107 11.175714 11.069926 10.964497 10.858893 10.794506 10.860968 11.148395 11.301468 11.377958 11.419585 11.323087 11.248081 11.022573 10.891887 10.642310 10.459876
28.615437 28.570589 28.523920 28.456066 28.316505 28.467739 28.494081 28.394318 28.297003 28.258356 28.313139 28.244225 28.180193 28.129293 28.100882 28.315849 28.700104 29.131014 29.540815 29.907984 30.245249 30.552134 30.824371 31.073944 31.321444 31.568581 31.814259 32.032574 32.317535 32.931576 33.626919 34.356949 35.050892 35.679829 36.226643 36.723076 37.263203 37.859715 38.418995 38.941612 39.409527 39.788071 40.067562 40.178032 40.290871 40.424343 40.791405 41.089417 41.207973 41.346352 41.444054 41.649437 41.608540 41.598228 41.852455 41.909500 42.021080 41.963879 41.970421 41.836624 41.760014 41.650185 41.585915 41.653473 41.707355 41.712151 41.707176 41.715260 41.741837 41.784573 41.905064 41.772198 41.724106 41.597305 41.515961 41.471794 41.319286 41.055824 40.885971 40.702408 40.561600 40.525536 40.335087 40.150654 40.004482 39.836582 39.603893 39.188580 38.175751 36.887333 35.478203 34.013050 32.554218 31.246311 30.243296 30.136341 29.965925 29.926699 29.936914 29.938385 29.838379 29.714521 29.613445 29.707829 29.775337 29.751801 29.623934 29.463573 29.568081 29.593111 29.649872 29.691490 29.326664 29.508123 29.605003 29.649565 29.562462 29.407476 29.441723 29.285601 29.200781 29.248541 29.208193 29.006283 28.924353 28.914923 28.964619 28.977646 28.978594 28.953629 28.936970 28.917700 28.960569 28.925529 28.918955 28.842770 28.674011 28.850798 28.726963 28.806387 28.909224 28.263824 27.222824 26.023174 25.406183 25.356939 25.168526 24.972084 24.767797 24.561954 24.387117 24.308142 24.224855 24.203485 24.213667 24.401955 25.163925 25.957371 26.677486 26.600431 26.550158 26.452032 26.337254 26.282270 26.079760 25.961014 25.819412 25.671782 25.512314 25.335329 25.133440 24.943180 24.866068 24.659870 24.552284 24.499435 24.567204 24.418114 24.082745 23.915417 23.873835 23.628256 23.359449 23.166698 22.722008 22.429718 22.135078 21.916563 21.738342 21.671692 21.538752 21.291746 21.049334 20.753263 20.436737 19.998436 19.701284 19.337467 19.024290 18.841129 18.622398 18.517183 18.190069 18.076273 17.977737 17.540871 16.837875 16.150023 15.616200 15.650714 15.589644 15.460536 15.574742 15.456378 15.359256 15.298045 15.255803 15.207000 15.175398 15.155458 15.226518 15.162986 15.063155 14.957468 14.792593 14.607399 14.524428 14.500080 14.479411 14.420351 14.320457 14.250005 14.236429 14.257940 14.245887 13.937674 13.743292 13.618335 13.456278 13.390663 13.347965 13.303589 13.273699 13.246558 13.222195 13.200716 13.180583 13.160533 13.141129 13.123085 13.106959 13.092433 13.078882 13.066451 13.055081 13.044633 13.034944 13.026219 13.018582 13.012415 13.009114 13.010152 13.016596 13.033484 13.067400 12.850280 12.659823 12.618169 12.506904 12.443798 12.439154 12.420923 12.561069 12.529822 12.470725 12.485137 12.505695 12.555494 12.272002 12.071941 11.884078 11.768686 11.714268 11.599977 11.495913 11.384709 11.273871 11.164310 11.055791 10.947413 10.840561 10.730233 10.830496 11.076605 11.269650 11.319414 11.260157 11.203536 11.143351 11.019757 10.876035 10.630561 10.455168
28.654234 28.610739 28.600191 28.575468 28.511406 28.466784 28.508039 28.327984 28.288193 28.339140 28.407970 28.195951 28.171263 28.125181 28.101480 28.398853 28.860353 29.349678 29.819933 30.242332 30.621990 30.959509 31.251633 31.514027 31.780148 32.057545 32.360394 32.724442 33.231857 33.762917 34.313004 34.991016 35.724525 36.335503 36.909962 37.439709 37.931915 38.466358 38.963776 39.403751 39.789413 40.108715 40.341656 40.468479 40.700958 41.060467 41.272575 41.490116 41.486679 41.599079 41.713909 41.659264 41.734249 41.938553 42.144535 42.263149 42.041000 42.057896 42.054344 41.947773 41.880283 41.904724 41.943047 41.958050 41.958111 41.936886 41.914814 41.903477 41.907391 41.926830 41.932285 41.869633 41.802353 41.634140 41.507214 41.406593 41.254498 40.993149 40.916851 40.762875 40.696342 40.643589 40.526031 40.297428 40.184284 40.013161 39.763599 39.271614 38.211464 36.864529 35.371098 33.784283 32.132851 30.631496 30.156725 30.105211 29.859001 29.824152 29.805895 29.912741 29.791521 29.721088 29.589432 29.661222 29.647396 29.610464 29.636223 29.505507 29.411739 29.545593 29.614145 29.675610 29.539543 29.576986 29.621185 29.668337 29.523689 29.351925 29.309490 29.331976 29.202587 29.274218 29.232840 29.076059 28.854477 28.762150 28.855421 28.869600 28.873545 28.871660 28.842064 28.843079 28.827190 28.866280 28.947453 28.866951 28.803446 28.867283 28.841049 28.867464 28.685898 27.943998 27.028084 26.049759 25.392412 25.348757 25.164328 24.973438 24.784256 24.603745 24.423956 24.291788 24.214499 24.250835 24.190384 24.385868 25.242203 26.118498 26.749250 26.777281 26.653210 26.484100 26.415113 26.252842 26.072289 25.974604 25.820704 25.600698 25.363075 25.188755 25.048937 24.899994 24.753458 24.610043 24.492517 24.360722 24.316154 24.249189 23.948093 23.703548 23.684265 23.575447 23.409275 23.158215 22.907795 22.500851 22.241890 22.046848 21.836910 21.738300 21.680321 21.468466 21.203747 20.910027 20.618572 20.398579 20.047422 19.760489 19.420191 19.042763 18.883238 18.695599 18.513073 18.322735 17.958805 17.667244 17.318226 16.793438 16.137499 15.522094 15.634044 15.526464 15.459032 15.420108 15.290247 15.280595 15.264919 15.239449 15.158709 15.076344 15.146612 15.121040 15.051435 14.972257 14.697222 14.541586 14.505669 14.512387 14.508923 14.461255 14.303445 14.333624 14.291585 14.307571 14.216575 13.942013 13.786016 13.484374 13.360717 13.381768 13.373227 13.327415 13.287726 13.253258 13.222562 13.196299 13.173409 13.151555 13.130668 13.111548 13.094347 13.078591 13.063739 13.050096 13.037689 13.026244 13.015928 13.007067 13.000102 12.996281 12.997148 13.004052 13.021008 13.062836 13.112094 12.887436 12.626877 12.507724 12.353639 12.363342 12.282021 12.346403 12.463779 12.487762 12.426097 12.433648 12.531861 12.483618 12.247886 12.051716 11.876161 11.741489 11.647786 11.601917 11.489662 11.374027 11.259933 11.147945 11.037904 10.930995 10.809084 10.813211 10.807077 10.976198 11.039075 11.186830 11.206991 11.160662 11.067313 10.998886 10.865386 10.630606 10.344199
28.633194 28.639866 28.662674 28.614643 28.560522 28.528280 28.458061 28.494900 28.411253 28.395456 28.401157 28.271509 28.167812 28.126028 28.064375 28.470543 29.025129 29.554468 30.065945 30.555527 30.993778 31.370432 31.673931 31.946812 32.232391 32.550430 32.947620 33.482140 33.959038 34.474537 35.025127 35.610447 36.233311 37.004982 37.682487 38.198891 38.654877 39.112694 39.529015 39.888638 40.208050 40.466541 40.610088 40.921326 41.129848 41.474674 41.685837 41.881069 41.849861 42.014236 42.084629 41.782032 42.113087 42.305847 42.417259 42.397923 42.274467 42.120960 42.156021 42.157001 42.194534 42.316124 42.334480 42.248798 42.200024 42.150948 42.109795 42.079639 42.063858 42.080967 42.108135 41.938194 41.802837 41.619102 41.447018 41.303871 41.171402 41.017326 40.955036 40.838490 40.878998 40.787991 40.603420 40.498650 40.354588 40.198414 39.933735 39.482456 38.424320 37.030319 35.436779 33.718212 31.882439 30.156195 30.067326 29.975956 29.925547 29.834591 29.731062 29.753849 29.732069 29.701677 29.709427 29.646772 29.595448 29.559654 29.531277 29.511152 29.421585 29.490187 29.538582 29.592266 29.626471 29.629417 29.638660 29.639133 29.503258 29.342028 29.204659 29.108143 29.181000 29.082762 29.007626 28.808123 28.780418 28.768003 28.783220 28.773165 28.765373 28.737976 28.789616 28.860638 28.883158 28.878836 28.989861 28.869698 28.750919 28.879906 28.805599 28.902748 28.630772 27.810801 26.936638 26.179472 25.646496 25.344702 25.147753 24.962336 24.779270 24.609816 24.465630 24.265211 24.276625 24.319553 24.281179 24.545748 25.365673 26.223669 26.781883 26.779760 26.732573 26.570398 26.412848 26.247509 26.069191 25.895798 25.727818 25.531870 25.367674 25.209372 25.054171 24.898775 24.741976 24.577728 24.446407 24.338068 24.242504 24.188877 23.998493 23.732571 23.493507 23.398672 23.270649 23.268806 22.922363 22.578873 22.345713 22.108494 21.997477 21.884974 21.759914 21.567196 21.311060 21.040461 20.787941 20.598619 20.269281 19.990032 19.729271 19.416149 19.092358 18.774864 18.700150 18.269571 17.894428 17.569019 17.354458 17.278156 16.890295 16.168819 15.502862 15.543364 15.554284 15.493165 15.366765 15.350868 15.290716 15.292290 15.204882 15.105767 14.990757 15.053243 15.011673 14.981842 14.818254 14.593359 14.530081 14.564300 14.573807 14.507837 14.386029 14.263991 14.169023 14.111544 14.097033 13.956112 13.988395 13.681310 13.526179 13.394701 13.404513 13.365369 13.312467 13.269703 13.229726 13.194270 13.165607 13.141637 13.119497 13.099877 13.081719 13.063837 13.047053 13.031456 13.017395 13.004792 12.994114 12.985695 12.980568 12.980419 12.986372 13.001427 13.038315 13.093019 13.153124 12.927253 12.726400 12.494769 12.402903 12.372280 12.372253 12.290328 12.267458 12.340276 12.354087 12.290836 12.312665 12.353411 12.261950 12.027270 11.839336 11.646784 11.649625 11.577719 11.492169 11.360847 11.240570 11.127159 11.019135 10.920329 10.832476 10.790575 10.767385 10.828941 10.880812 11.022635 11.049263 11.075727 11.042057 10.951087 10.804917 10.626279 10.510067
